<?xml version="1.0"?>
<opencv_storage>
<depth type_id="opencv-matrix">
  <rows>41</rows>
  <cols>480</cols>
  <dt>w</dt>
  <data>
    1542 1542 1549 1549 1542 1542 1542 1549 1542 1549 1549 1549 1549 1549 1549 1556 1549 1549 1556 1556 1556 1556 1549 1556 1556 1556 1552 1556 1556 1556 1556 1556 1563 1563 1563 1571 1571 1571 1571 1571 1571 1571 1571 1571 1571 1571 1571 1571 1571 1571 1571 1571 1571 1571 1571 1571 1571 1571 1578 1578 1578 1578 1578 1585 1585 1585 1578 1578 1585 1585 1585 1585 1592 1592 1592 1592 1592 1585 1585 1592 1585 1592 1592 1592 1600 1600 1600 1600 1607 1600 1607 1607 1607 1607 1607 1600 1600 1600 1607 1600 1607 1607 1607 1607 1615 1615 1615 1615 1615 1615 1615 1615 1615 1615 1622 1622 1622 1622 1622 1622 1622 1622 1622 1622 1622 1622 1630 1630 1630 1630 1630 1638 1638 1638 1630 1630 1638 1638 1638 1638 1638 1638 1638 1638 1638 1638 1638 1638 1645 1645 1638 1638 1638 1638 1638 1638 1645 1645 1645 1653 1653 1661 1653 1661 1661 1661 1661 1661 1661 1661 1661 1661 1653 1653 1653 1653 1661 1661 1661 1661 1669 1669 1669 1669 1669 1669 1669 1669 1669 1669 1669 1669 1669 1669 1677 1677 1677 1677 1686 1686 1686 1686 1677 1677 1686 1686 1686 1694 1694 1694 1694 1694 1694 1694 1694 1694 1694 1694 1694 1694 1694 1694 1694 1694 1702 1702 1702 1702 1702 1702 1702 1702 1702 1702 1702 1702 1702 1702 1711 1711 1711 1711 1711 1711 1711 1711 1711 1711 1719 1719 1719 1719 1719 1719 1711 1711 1711 1719 1728 1728 1728 1728 1728 1728 1728 1728 1728 1728 1728 1728 1728 1728 1728 1728 1728 1728 1736 1736 1736 1736 1736 1736 1728 1736 1736 1736 1736 1728 1736 1736 1736 1736 1736 1736 1736 1736 1736 1736 1736 1745 1745 1745 1745 1745 1745 1745 1754 1754 1754 1754 1754 1754 1754 1754 1754 1754 1754 1754 1763 1763 1763 1763 1763 1763 1763 1763 1763 1763 1763 1763 1763 1772 1772 1772 1772 1772 1772 1772 1772 1781 1781 1781 1781 1781 1781 1781 1781 1781 1781 1781 1781 1781 1790 1790 1790 1790 1781 1790 1781 1781 1790 1790 1790 1800 1800 1800 1800 1800 1800 1800 1790 1790 1790 1790 1790 1800 1800 1800 1800 1800 1809 1809 1809 1800 1809 1809 1809 1809 1809 1809 1809 1809 1809 1809 1809 1809 1809 1809 1809 1809 1809 1809 1809 1809 1819 1809 1819 1819 1819 1819 1819 1819 1828 1828 1828 1828 1838 1838 1838 1838 1838 1838 1838 1838 1838 1838 1838 1838 1838 1838 1838 1848 1848 1848 1848 1848 1848 1848 1848 0 0 0 0 0 0 0 0 0 0 0 0 0 0 0 0 0 0 0 0 0 0 0 0 0 0 0 0 0 0 0 0 0 0 0 0 0 0 0 0 0
    1542 1542 1542 1542 1542 1542 1542 1542 1542 1549 1549 1549 1549 1549 1549 1549 1549 1549 1549 1549 1556 1556 1549 1556 1556 1556 1556 1556 1556 1556 1556 1563 1563 1563 1571 1571 1571 1571 1571 1571 1571 1571 1571 1571 1571 1571 1571 1571 1571 1571 1571 1571 1571 1571 1571 1571 1571 1578 1578 1578 1578 1578 1578 1578 1578 1578 1578 1578 1585 1585 1585 1585 1592 1592 1592 1592 1592 1585 1592 1592 1585 1592 1592 1592 1600 1600 1600 1600 1607 1607 1607 1607 1607 1607 1607 1600 1600 1600 1607 1600 1607 1607 1607 1615 1615 1615 1615 1615 1615 1615 1615 1615 1615 1615 1622 1615 1622 1622 1622 1622 1622 1622 1622 1622 1622 1622 1630 1630 1630 1630 1630 1630 1630 1630 1638 1638 1638 1638 1638 1638 1638 1638 1638 1638 1638 1638 1638 1638 1645 1645 1638 1638 1638 1638 1638 1638 1645 1638 1645 1645 1653 1653 1653 1661 1661 1661 1661 1661 1661 1661 1661 1661 1661 1661 1653 1653 1661 1661 1661 1661 1669 1669 1669 1669 1669 1669 1669 1669 1669 1669 1669 1669 1669 1677 1677 1677 1677 1677 1686 1686 1686 1686 1686 1686 1686 1686 1686 1686 1694 1694 1694 1694 1694 1694 1694 1694 1694 1694 1694 1694 1694 1694 1694 1694 1694 1694 1694 1694 1702 1702 1702 1702 1702 1702 1702 1702 1702 1702 1702 1711 1711 1711 1711 1711 1711 1711 1711 1711 1711 1719 1711 1711 1719 1711 1711 1711 1711 1719 1728 1728 1728 1728 1728 1728 1728 1728 1728 1728 1728 1728 1728 1728 1728 1728 1728 1728 1736 1736 1728 1736 1736 1736 1728 1728 1736 1728 1728 1728 1728 1736 1736 1736 1736 1736 1736 1736 1736 1736 1736 1745 1745 1745 1745 1745 1745 1745 1754 1754 1754 1754 1754 1754 1754 1754 1763 1763 1763 1763 1763 1763 1763 1763 1763 1763 1763 1763 1763 1763 1763 1763 1763 1763 1772 1772 1772 1772 1772 1772 1772 1772 1781 1781 1781 1781 1781 1781 1781 1781 1781 1781 1781 1781 1781 1781 1781 1781 1781 1781 1781 1781 1790 1790 1790 1800 1800 1800 1800 1800 1800 1800 1800 1800 1790 1790 1800 1800 1800 1800 1800 1800 1809 1809 1809 1809 1809 1809 1809 1809 1809 1809 1809 1809 1809 1809 1809 1809 1809 1809 1809 1809 1809 1809 1809 1819 1819 1819 1819 1819 1819 1819 1819 1828 1828 1828 1828 1828 1838 1838 1838 1838 1838 1838 1838 1838 1838 1838 1838 1838 1838 1838 1848 1848 1848 1848 1848 1848 1848 1848 1848 0 0 0 0 0 0 0 0 0 0 0 0 0 0 0 0 0 0 0 0 0 0 0 0 0 0 0 0 0 0 0 0 0 0 0 0 0 0 0 0 0
    1542 1542 1542 1542 1542 1542 1542 1542 1542 1549 1549 1549 1549 1549 1549 1549 1549 1549 1552 1552 1556 1556 1552 1556 1556 1556 1556 1556 1549 1549 1556 1556 1571 1563 1571 1571 1571 1571 1571 1571 1571 1571 1571 1571 1571 1571 1571 1571 1571 1571 1571 1571 1571 1571 1571 1571 1571 1578 1578 1578 1578 1578 1578 1578 1578 1578 1578 1578 1585 1585 1592 1592 1592 1592 1592 1592 1592 1592 1592 1592 1592 1592 1592 1592 1600 1600 1600 1607 1607 1607 1607 1607 1607 1607 1600 1600 1600 1600 1607 1600 1607 1607 1607 1607 1607 1607 1615 1615 1615 1615 1615 1615 1615 1615 1622 1622 1622 1630 1630 1630 1630 1630 1630 1630 1630 1622 1630 1630 1630 1630 1630 1630 1630 1630 1630 1638 1638 1638 1638 1638 1638 1638 1638 1638 1638 1638 1638 1638 1638 1638 1638 1638 1638 1638 1638 1638 1638 1645 1645 1645 1653 1653 1653 1661 1661 1661 1661 1661 1661 1661 1661 1661 1661 1661 1661 1661 1661 1661 1661 1661 1669 1669 1669 1669 1669 1669 1669 1669 1669 1669 1669 1669 1677 1677 1677 1669 1677 1677 1677 1677 1677 1677 1686 1686 1686 1686 1694 1694 1694 1694 1694 1694 1694 1694 1694 1694 1694 1694 1694 1694 1694 1694 1694 1694 1694 1694 1694 1694 1694 1702 1702 1702 1702 1702 1702 1702 1702 1702 1711 1711 1711 1711 1711 1711 1711 1711 1711 1711 1711 1719 1719 1711 1719 1711 1711 1711 1719 1719 1728 1728 1728 1728 1728 1728 1728 1728 1728 1728 1728 1728 1728 1728 1728 1728 1728 1728 1736 1736 1736 1736 1736 1736 1728 1736 1736 1728 1736 1736 1736 1736 1736 1736 1736 1736 1736 1736 1736 1736 1736 1745 1736 1745 1745 1745 1745 1745 1745 1754 1754 1754 1754 1754 1754 1754 1754 1754 1763 1763 1763 1763 1763 1763 1763 1763 1763 1763 1763 1763 1763 1763 1763 1763 1772 1772 1763 1772 1772 1772 1772 1772 1781 1781 1781 1781 1781 1781 1781 1781 1781 1781 1781 1781 1781 1781 1781 1781 1781 1781 1781 1781 1781 1781 1790 1800 1800 1800 1800 1800 1800 1800 1800 1800 1800 1800 1800 1800 1800 1800 1800 1809 1809 1809 1809 1809 1809 1809 1809 1809 1809 1809 1809 1809 1809 1809 1809 1809 1809 1809 1809 1809 1809 1809 1809 1819 1819 1809 1819 1819 1819 1819 1819 1828 1828 1828 1828 1838 1838 1838 1838 1838 1838 1838 1838 1838 1838 1838 1838 1838 1838 1838 1848 1848 1848 1848 1848 1848 1848 1848 1848 0 0 0 0 0 0 0 0 0 0 0 0 0 0 0 0 0 0 0 0 0 0 0 0 0 0 0 0 0 0 0 0 0 0 0 0 0 0 0 0 0
    1542 1542 1542 1542 1542 1542 1542 1542 1542 1549 1549 1549 1549 1549 1549 1549 1549 1549 1556 1556 1556 1556 1556 1556 1556 1556 1556 1556 1552 1552 1556 1556 1563 1563 1571 1571 1571 1571 1571 1571 1571 1571 1571 1571 1571 1571 1571 1571 1571 1571 1571 1571 1571 1571 1571 1578 1578 1578 1578 1578 1585 1578 1578 1578 1578 1578 1585 1585 1585 1585 1592 1585 1592 1592 1592 1592 1592 1592 1592 1592 1592 1592 1592 1592 1600 1600 1607 1607 1607 1607 1607 1607 1607 1607 1600 1600 1600 1600 1600 1600 1600 1607 1607 1607 1607 1607 1607 1607 1607 1615 1615 1615 1615 1615 1622 1622 1622 1630 1622 1622 1630 1630 1630 1630 1630 1630 1630 1630 1630 1630 1630 1630 1630 1630 1630 1630 1638 1638 1638 1638 1638 1638 1638 1638 1638 1638 1638 1638 1638 1638 1638 1638 1638 1638 1638 1645 1645 1638 1645 1645 1653 1653 1653 1653 1661 1661 1661 1661 1661 1661 1661 1661 1661 1661 1661 1661 1661 1661 1661 1661 1669 1669 1669 1669 1669 1669 1669 1669 1669 1669 1669 1669 1677 1677 1677 1677 1677 1677 1677 1677 1677 1677 1677 1677 1686 1686 1694 1686 1694 1694 1694 1694 1694 1694 1694 1694 1694 1694 1694 1694 1694 1694 1694 1694 1694 1694 1694 1694 1694 1694 1694 1694 1702 1702 1702 1702 1702 1702 1702 1711 1711 1711 1711 1719 1719 1719 1719 1711 1711 1711 1711 1711 1711 1711 1711 1711 1719 1719 1728 1728 1728 1719 1728 1728 1728 1728 1728 1728 1728 1728 1728 1728 1728 1728 1728 1728 1728 1728 1728 1728 1728 1728 1728 1728 1728 1728 1728 1728 1736 1736 1736 1736 1736 1736 1736 1736 1736 1745 1745 1745 1736 1736 1736 1736 1736 1745 1745 1745 1754 1754 1754 1754 1754 1754 1763 1763 1763 1763 1763 1763 1763 1763 1763 1763 1763 1763 1763 1763 1763 1763 1763 1763 1763 1763 1763 1772 1772 1772 1781 1781 1781 1781 1781 1781 1781 1781 1781 1781 1781 1781 1781 1781 1781 1781 1781 1781 1781 1781 1781 1781 1781 1781 1790 1790 1790 1800 1800 1800 1800 1800 1800 1800 1800 1800 1800 1800 1800 1800 1800 1809 1809 1809 1809 1809 1809 1809 1809 1809 1809 1809 1809 1809 1809 1809 1809 1809 1809 1809 1809 1809 1809 1809 1819 1819 1819 1819 1819 1819 1819 1819 1819 1819 1828 1828 1828 1838 1838 1838 1838 1838 1838 1838 1838 1838 1838 1838 1838 1838 1838 1838 1838 1838 1848 1848 1848 1848 1848 1848 1848 0 0 0 0 0 0 0 0 0 0 0 0 0 0 0 0 0 0 0 0 0 0 0 0 0 0 0 0 0 0 0 0 0 0 0 0 0 0 0 0 0
    1542 1542 1542 1542 1542 1542 1549 1549 1549 1549 1549 1549 1549 1549 1549 1549 1552 1552 1556 1556 1556 1563 1563 1556 1556 1556 1556 1556 1556 1556 1556 1563 1571 1571 1571 1571 1571 1571 1571 1571 1571 1571 1571 1571 1571 1571 1571 1571 1571 1571 1571 1571 1571 1571 1571 1578 1578 1578 1578 1578 1585 1585 1585 1585 1585 1585 1585 1585 1585 1585 1585 1585 1592 1592 1592 1592 1592 1592 1592 1592 1592 1592 1592 1592 1600 1607 1607 1607 1607 1607 1607 1607 1607 1600 1600 1600 1600 1600 1600 1600 1600 1607 1607 1607 1607 1607 1607 1607 1607 1607 1607 1615 1615 1615 1615 1615 1622 1630 1630 1630 1630 1630 1630 1630 1630 1622 1622 1630 1630 1622 1622 1630 1630 1630 1630 1630 1638 1638 1638 1638 1638 1638 1638 1638 1638 1638 1638 1638 1638 1638 1638 1638 1638 1638 1638 1638 1638 1638 1645 1645 1645 1653 1653 1653 1661 1661 1661 1661 1661 1661 1661 1661 1661 1661 1661 1661 1661 1661 1661 1661 1661 1661 1669 1669 1669 1669 1669 1669 1669 1669 1669 1677 1677 1677 1677 1669 1669 1669 1677 1677 1677 1677 1677 1677 1686 1686 1686 1686 1686 1686 1694 1694 1694 1694 1694 1694 1694 1694 1694 1694 1694 1694 1694 1694 1694 1694 1694 1694 1702 1694 1694 1694 1702 1702 1702 1702 1702 1702 1702 1702 1711 1711 1711 1711 1711 1719 1719 1711 1711 1719 1711 1711 1711 1711 1711 1711 1711 1719 1719 1719 1719 1719 1719 1719 1728 1728 1728 1728 1728 1728 1728 1728 1728 1728 1728 1728 1728 1728 1728 1728 1728 1728 1728 1728 1728 1728 1728 1736 1736 1736 1736 1736 1736 1736 1736 1736 1736 1745 1745 1745 1736 1736 1745 1745 1745 1745 1745 1745 1754 1754 1754 1754 1754 1754 1763 1754 1763 1763 1763 1763 1763 1763 1763 1763 1763 1763 1763 1763 1763 1763 1763 1763 1763 1763 1763 1763 1772 1772 1772 1772 1781 1781 1781 1781 1781 1781 1781 1781 1781 1781 1781 1781 1781 1781 1781 1781 1781 1781 1781 1790 1790 1790 1790 1790 1790 1800 1800 1800 1800 1800 1800 1800 1800 1800 1800 1800 1800 1800 1800 1800 1800 1809 1809 1809 1809 1809 1809 1809 1809 1809 1809 1809 1809 1809 1809 1809 1809 1809 1809 1809 1809 1809 1809 1819 1809 1809 1819 1819 1819 1819 1819 1828 1828 1828 1838 1838 1838 1838 1838 1838 1838 1838 1838 1838 1838 1838 1838 1838 1838 1838 1838 1848 1848 1848 1848 1848 1848 1848 1848 0 0 0 0 0 0 0 0 0 0 0 0 0 0 0 0 0 0 0 0 0 0 0 0 0 0 0 0 0 0 0 0 0 0 0 0 0 0 0 0 0
    1542 1542 1542 1542 1542 1542 1542 1542 1542 1542 1542 1549 1549 1549 1549 1552 1556 1556 1556 1556 1563 1563 1563 1563 1563 1563 1556 1556 1556 1556 1556 1571 1571 1571 1571 1571 1571 1571 1571 1571 1571 1571 1571 1571 1571 1571 1571 1571 1571 1578 1571 1571 1571 1571 1571 1578 1578 1578 1578 1585 1585 1585 1585 1585 1585 1585 1585 1585 1585 1585 1592 1592 1592 1592 1592 1592 1592 1592 1592 1592 1592 1592 1592 1600 1600 1600 1600 1607 1607 1607 1607 1600 1600 1600 1600 1600 1600 1600 1600 1600 1607 1607 1607 1607 1607 1607 1615 1615 1615 1615 1615 1615 1615 1615 1622 1622 1622 1630 1630 1630 1630 1630 1630 1630 1630 1630 1630 1630 1630 1630 1630 1630 1630 1630 1630 1630 1638 1638 1638 1638 1638 1638 1638 1638 1638 1638 1638 1638 1638 1638 1638 1638 1638 1638 1638 1638 1638 1638 1638 1645 1645 1645 1645 1653 1661 1661 1661 1661 1661 1661 1661 1653 1653 1661 1661 1661 1661 1661 1661 1661 1661 1661 1661 1669 1669 1669 1669 1669 1669 1669 1669 1669 1677 1677 1677 1669 1669 1677 1677 1677 1677 1677 1677 1677 1686 1686 1686 1686 1686 1686 1686 1694 1694 1694 1694 1694 1694 1694 1694 1694 1694 1694 1694 1694 1694 1694 1694 1694 1694 1694 1694 1694 1694 1694 1702 1702 1702 1702 1702 1702 1711 1711 1711 1711 1719 1719 1719 1719 1719 1719 1719 1711 1711 1711 1711 1711 1711 1719 1719 1719 1719 1719 1719 1719 1728 1728 1728 1728 1728 1728 1728 1728 1728 1728 1728 1728 1728 1728 1728 1728 1728 1728 1728 1728 1728 1728 1728 1728 1736 1736 1736 1728 1736 1736 1736 1736 1736 1736 1736 1736 1736 1736 1745 1745 1745 1745 1745 1745 1754 1754 1745 1754 1754 1745 1754 1763 1763 1763 1763 1754 1763 1763 1763 1763 1763 1763 1763 1772 1772 1772 1772 1772 1772 1772 1772 1772 1772 1772 1772 1781 1781 1781 1781 1790 1790 1781 1781 1781 1781 1781 1781 1781 1781 1781 1781 1781 1781 1781 1781 1790 1790 1790 1800 1800 1800 1800 1790 1800 1790 1790 1800 1800 1800 1800 1800 1800 1800 1800 1800 1800 1800 1800 1800 1800 1800 1800 1809 1809 1809 1809 1809 1809 1809 1809 1809 1809 1809 1809 1809 1809 1809 1809 1809 1819 1819 1809 1819 1819 1819 1819 1828 1828 1828 1828 1838 1838 1838 1838 1838 1838 1838 1838 1838 1838 1838 1838 1838 1838 1838 1838 1838 1848 1848 1848 1848 1848 1848 1848 1848 0 0 0 0 0 0 0 0 0 0 0 0 0 0 0 0 0 0 0 0 0 0 0 0 0 0 0 0 0 0 0 0 0 0 0 0 0 0 0 0 0
    1536 1542 1542 1542 1542 1542 1549 1542 1542 1542 1542 1542 1549 1549 1549 1556 1556 1556 1556 1563 1563 1563 1563 1563 1563 1563 1556 1563 1556 1556 1563 1563 1563 1571 1571 1571 1571 1571 1571 1571 1571 1571 1571 1571 1571 1571 1571 1571 1578 1578 1571 1571 1571 1571 1578 1578 1578 1578 1578 1585 1585 1585 1585 1585 1585 1585 1585 1585 1585 1585 1585 1585 1585 1592 1592 1600 1592 1592 1592 1592 1592 1592 1592 1592 1600 1600 1600 1607 1607 1607 1607 1600 1600 1600 1600 1600 1600 1600 1607 1607 1607 1607 1607 1607 1607 1607 1607 1615 1615 1615 1615 1615 1615 1622 1622 1622 1622 1630 1630 1630 1630 1630 1630 1630 1630 1630 1630 1630 1630 1622 1630 1630 1630 1630 1630 1630 1638 1638 1638 1638 1638 1638 1638 1638 1638 1638 1638 1638 1638 1645 1645 1638 1645 1645 1638 1645 1645 1638 1645 1645 1645 1645 1645 1645 1653 1661 1661 1653 1661 1661 1661 1661 1661 1661 1661 1661 1661 1661 1661 1661 1661 1661 1661 1669 1669 1669 1669 1669 1669 1669 1669 1669 1677 1677 1677 1677 1677 1677 1677 1677 1677 1677 1677 1677 1686 1686 1686 1686 1686 1686 1686 1686 1694 1694 1694 1694 1694 1694 1694 1694 1694 1694 1694 1694 1694 1694 1694 1694 1694 1694 1694 1694 1694 1694 1702 1702 1702 1702 1702 1702 1702 1711 1711 1719 1719 1719 1719 1719 1719 1719 1719 1719 1711 1719 1719 1719 1719 1719 1719 1728 1728 1719 1719 1719 1728 1728 1728 1728 1728 1728 1728 1728 1728 1728 1728 1728 1728 1728 1728 1728 1728 1728 1728 1728 1728 1728 1728 1728 1736 1736 1736 1736 1736 1736 1736 1736 1736 1736 1736 1745 1736 1736 1745 1745 1745 1745 1745 1745 1754 1754 1749 1754 1754 1749 1754 1754 1754 1754 1754 1754 1763 1763 1763 1763 1763 1763 1763 1772 1772 1772 1772 1772 1772 1772 1772 1772 1772 1772 1772 1772 1781 1781 1781 1781 1781 1781 1781 1781 1781 1781 1781 1781 1781 1781 1781 1781 1781 1781 1781 1790 1790 1790 1790 1790 1800 1800 1800 1800 1800 1790 1800 1800 1800 1800 1800 1800 1800 1800 1800 1800 1800 1800 1809 1809 1809 1809 1809 1809 1809 1809 1809 1809 1809 1809 1809 1809 1819 1809 1809 1809 1809 1809 1809 1819 1809 1809 1819 1809 1819 1819 1819 1828 1828 1828 1828 1838 1838 1838 1838 1828 1828 1828 1828 1828 1828 1828 1828 1838 1838 1838 1838 1838 1838 1848 1848 1848 1848 1848 1848 0 0 0 0 0 0 0 0 0 0 0 0 0 0 0 0 0 0 0 0 0 0 0 0 0 0 0 0 0 0 0 0 0 0 0 0 0 0 0 0 0
    1542 1542 1542 1542 1542 1549 1536 1549 1549 1542 1542 1549 1549 1549 1549 1549 1556 1556 1556 1563 1563 1563 1563 1563 1563 1563 1563 1563 1556 1556 1563 1563 1571 1571 1571 1571 1571 1571 1571 1571 1571 1571 1571 1571 1571 1571 1571 1571 1571 1571 1571 1571 1571 1571 1578 1578 1578 1578 1578 1585 1585 1585 1585 1585 1585 1585 1585 1585 1585 1585 1585 1592 1592 1592 1600 1600 1600 1600 1592 1592 1600 1600 1600 1600 1600 1600 1600 1607 1607 1607 1607 1600 1600 1600 1600 1600 1600 1600 1607 1607 1607 1607 1607 1607 1607 1607 1607 1607 1607 1615 1615 1615 1615 1622 1615 1622 1622 1630 1630 1630 1630 1630 1630 1630 1630 1630 1630 1630 1622 1622 1622 1622 1630 1630 1630 1630 1638 1638 1638 1638 1638 1638 1638 1638 1638 1638 1638 1638 1638 1638 1638 1638 1638 1645 1645 1645 1645 1645 1645 1645 1645 1645 1645 1645 1653 1653 1661 1661 1661 1661 1661 1661 1661 1661 1661 1661 1661 1661 1661 1661 1661 1661 1669 1669 1669 1669 1669 1669 1669 1669 1669 1669 1669 1677 1677 1677 1677 1677 1677 1677 1677 1677 1677 1677 1686 1686 1686 1686 1686 1686 1686 1686 1694 1694 1694 1694 1694 1694 1694 1694 1694 1694 1694 1694 1694 1694 1694 1694 1694 1694 1694 1694 1694 1694 1694 1702 1702 1702 1702 1702 1702 1711 1711 1711 1719 1719 1719 1719 1719 1719 1719 1711 1711 1719 1719 1719 1719 1719 1728 1728 1728 1728 1728 1728 1728 1728 1728 1728 1728 1728 1728 1728 1728 1728 1728 1728 1728 1728 1728 1728 1728 1728 1728 1728 1728 1728 1728 1736 1736 1736 1736 1736 1736 1736 1736 1736 1736 1736 1736 1736 1736 1745 1745 1745 1745 1749 1749 1749 1754 1754 1754 1754 1754 1754 1754 1754 1754 1754 1754 1754 1763 1763 1763 1763 1763 1763 1763 1772 1772 1772 1772 1772 1772 1772 1772 1772 1772 1772 1772 1772 1772 1781 1781 1772 1772 1781 1781 1781 1781 1781 1781 1781 1781 1781 1781 1781 1781 1790 1781 1790 1781 1781 1790 1790 1790 1800 1800 1790 1790 1790 1800 1800 1800 1800 1800 1800 1800 1800 1800 1800 1800 1800 1809 1809 1809 1809 1809 1809 1809 1809 1809 1809 1809 1809 1809 1809 1819 1809 1809 1809 1809 1809 1819 1819 1809 1809 1819 1819 1819 1819 1819 1828 1828 1838 1838 1838 1838 1838 1838 1828 1828 1828 1828 1828 1819 1828 1828 1828 1838 1838 1838 1838 1838 1838 1838 1838 1848 1848 1848 0 0 0 0 0 0 0 0 0 0 0 0 0 0 0 0 0 0 0 0 0 0 0 0 0 0 0 0 0 0 0 0 0 0 0 0 0 0 0 0 0
    1536 1542 1542 1542 1542 1549 1542 1549 1549 1542 1549 1549 1549 1549 1549 1549 1556 1556 1556 1556 1563 1563 1563 1563 1563 1563 1556 1563 1556 1556 1563 1563 1571 1571 1571 1571 1571 1571 1571 1571 1571 1571 1571 1571 1571 1571 1578 1578 1578 1578 1571 1571 1571 1578 1578 1578 1578 1578 1578 1585 1585 1585 1585 1585 1585 1585 1585 1592 1592 1592 1592 1592 1600 1600 1600 1600 1600 1600 1600 1592 1600 1600 1600 1600 1600 1600 1607 1607 1607 1607 1607 1600 1600 1600 1600 1600 1607 1607 1607 1607 1607 1607 1607 1607 1607 1607 1607 1607 1607 1607 1607 1607 1607 1615 1615 1615 1622 1630 1630 1630 1630 1630 1630 1630 1630 1630 1630 1630 1630 1630 1630 1630 1630 1630 1630 1630 1638 1638 1638 1638 1638 1638 1638 1638 1638 1638 1638 1638 1638 1638 1638 1638 1638 1645 1638 1645 1645 1645 1645 1653 1645 1653 1653 1653 1653 1653 1661 1661 1661 1661 1661 1661 1661 1661 1661 1661 1661 1661 1661 1661 1661 1661 1669 1669 1669 1669 1669 1669 1669 1669 1669 1669 1669 1677 1677 1669 1677 1677 1677 1677 1677 1677 1677 1677 1686 1686 1686 1686 1686 1686 1686 1694 1694 1694 1694 1694 1694 1694 1694 1694 1694 1694 1694 1694 1694 1694 1694 1694 1694 1694 1694 1694 1694 1694 1702 1702 1702 1702 1702 1702 1711 1711 1711 1711 1711 1719 1711 1719 1719 1719 1719 1719 1711 1719 1719 1719 1719 1728 1728 1728 1728 1728 1728 1719 1719 1719 1719 1728 1728 1728 1728 1728 1728 1728 1728 1728 1728 1728 1728 1728 1728 1728 1728 1728 1728 1728 1728 1728 1736 1736 1736 1736 1736 1736 1736 1736 1736 1736 1736 1736 1736 1745 1745 1745 1749 1754 1754 1754 1754 1754 1745 1745 1745 1745 1754 1745 1754 1754 1754 1763 1763 1763 1763 1763 1763 1763 1763 1772 1772 1772 1772 1772 1772 1772 1772 1772 1772 1772 1772 1772 1772 1772 1772 1772 1772 1781 1781 1772 1772 1781 1781 1781 1781 1781 1781 1781 1781 1781 1781 1790 1790 1781 1781 1790 1800 1800 1800 1800 1800 1790 1800 1800 1800 1800 1800 1800 1800 1800 1800 1800 1800 1800 1800 1809 1809 1809 1809 1809 1809 1809 1809 1809 1809 1809 1809 1809 1819 1819 1809 1809 1809 1809 1819 1809 1809 1809 1809 1809 1809 1819 1819 1819 1828 1828 1828 1828 1828 1828 1828 1828 1828 1828 1828 1828 1828 1828 1828 1828 1838 1838 1838 1838 1838 1838 1838 1838 1838 1838 1838 0 0 0 0 0 0 0 0 0 0 0 0 0 0 0 0 0 0 0 0 0 0 0 0 0 0 0 0 0 0 0 0 0 0 0 0 0 0 0 0 0
    1542 1542 1542 1542 1549 1549 1542 1549 1549 1542 1549 1542 1549 1549 1549 1549 1556 1556 1549 1556 1556 1556 1563 1563 1563 1563 1563 1563 1563 1563 1563 1563 1571 1571 1571 1571 1571 1571 1571 1571 1571 1571 1571 1571 1571 1571 1571 1578 1578 1578 1578 1578 1578 1578 1578 1578 1578 1578 1585 1585 1585 1585 1585 1585 1592 1592 1592 1592 1592 1592 1592 1600 1600 1600 1600 1600 1600 1600 1592 1592 1592 1600 1600 1600 1600 1607 1607 1607 1607 1600 1600 1600 1600 1600 1600 1607 1607 1607 1607 1607 1607 1607 1607 1607 1607 1607 1607 1607 1607 1607 1607 1607 1615 1615 1615 1615 1622 1630 1630 1630 1630 1630 1630 1630 1630 1630 1630 1630 1630 1630 1630 1630 1630 1630 1630 1638 1638 1638 1638 1638 1638 1638 1638 1638 1638 1638 1638 1638 1638 1638 1638 1638 1638 1645 1638 1645 1645 1645 1645 1645 1653 1653 1653 1653 1653 1661 1661 1661 1661 1661 1661 1661 1661 1661 1661 1661 1661 1661 1661 1661 1661 1661 1661 1669 1669 1669 1669 1669 1669 1669 1669 1669 1669 1669 1669 1677 1677 1677 1677 1677 1677 1686 1686 1686 1686 1686 1686 1686 1686 1686 1686 1694 1694 1694 1694 1694 1694 1694 1694 1694 1694 1694 1694 1694 1694 1694 1694 1694 1694 1694 1694 1694 1694 1694 1702 1702 1702 1702 1702 1702 1702 1711 1711 1711 1711 1719 1711 1719 1719 1719 1719 1711 1711 1719 1719 1719 1719 1728 1728 1728 1728 1719 1728 1719 1719 1719 1728 1728 1728 1728 1728 1728 1728 1728 1728 1728 1728 1728 1728 1728 1728 1728 1728 1728 1728 1728 1728 1728 1736 1736 1736 1736 1736 1736 1736 1736 1736 1736 1736 1736 1736 1745 1745 1745 1754 1754 1754 1754 1754 1754 1749 1749 1749 1749 1754 1749 1754 1754 1754 1754 1754 1754 1763 1763 1763 1763 1763 1763 1772 1772 1772 1772 1772 1772 1772 1772 1772 1772 1772 1772 1772 1772 1772 1772 1772 1781 1781 1772 1772 1781 1781 1781 1781 1781 1781 1781 1781 1790 1781 1790 1790 1790 1790 1790 1800 1800 1800 1800 1800 1790 1800 1800 1800 1800 1800 1800 1800 1800 1800 1800 1800 1800 1800 1800 1809 1809 1809 1809 1809 1809 1809 1809 1809 1809 1809 1809 1819 1819 1819 1819 1819 1819 1819 1819 1819 1809 1819 1819 1819 1819 1819 1828 1828 1828 1828 1828 1838 1828 1828 1828 1828 1828 1828 1828 1819 1819 1828 1828 1838 1838 1838 1838 1838 1838 1838 1838 1848 1848 1848 0 0 0 0 0 0 0 0 0 0 0 0 0 0 0 0 0 0 0 0 0 0 0 0 0 0 0 0 0 0 0 0 0 0 0 0 0 0 0 0 0
    1542 1542 1542 1542 1549 1549 1549 1549 1549 1542 1549 1542 1549 1549 1549 1549 1549 1556 1549 1556 1556 1556 1556 1556 1556 1556 1563 1563 1563 1563 1571 1571 1571 1571 1571 1571 1571 1571 1571 1563 1571 1571 1571 1571 1571 1571 1578 1578 1578 1578 1578 1578 1578 1578 1578 1578 1578 1578 1578 1578 1578 1585 1585 1585 1585 1585 1585 1585 1585 1585 1592 1592 1600 1600 1600 1600 1600 1600 1600 1600 1600 1600 1600 1600 1600 1600 1600 1607 1600 1600 1600 1600 1600 1600 1600 1600 1607 1607 1607 1607 1607 1607 1615 1615 1615 1607 1607 1607 1607 1607 1607 1607 1607 1615 1615 1615 1615 1615 1622 1622 1622 1630 1630 1630 1630 1630 1630 1630 1630 1630 1630 1630 1630 1630 1630 1638 1638 1638 1638 1638 1638 1638 1638 1638 1638 1638 1638 1638 1638 1638 1638 1638 1638 1645 1638 1645 1645 1638 1638 1645 1645 1653 1645 1653 1653 1653 1661 1661 1661 1661 1661 1661 1661 1661 1661 1661 1661 1661 1661 1661 1661 1661 1669 1669 1669 1669 1669 1669 1669 1669 1669 1669 1669 1677 1677 1677 1677 1677 1686 1686 1686 1686 1686 1677 1686 1677 1677 1677 1677 1686 1686 1686 1694 1694 1694 1694 1694 1694 1694 1694 1694 1694 1694 1694 1694 1694 1694 1694 1694 1694 1694 1694 1694 1694 1694 1694 1702 1702 1702 1702 1711 1711 1711 1711 1711 1719 1719 1719 1719 1719 1719 1719 1711 1719 1719 1719 1719 1728 1728 1728 1728 1719 1719 1719 1719 1719 1728 1728 1728 1728 1728 1728 1728 1728 1728 1728 1728 1728 1728 1728 1728 1728 1728 1728 1728 1728 1736 1736 1736 1736 1736 1736 1736 1736 1736 1736 1736 1736 1736 1736 1745 1745 1745 1745 1754 1754 1754 1754 1754 1754 1754 1754 1754 1754 1754 1754 1754 1754 1754 1754 1754 1754 1763 1763 1763 1763 1763 1763 1763 1763 1763 1772 1772 1772 1772 1772 1772 1772 1772 1772 1772 1772 1772 1781 1781 1781 1781 1781 1772 1781 1781 1781 1781 1781 1781 1781 1781 1790 1790 1790 1790 1790 1800 1800 1800 1800 1800 1790 1790 1800 1800 1800 1800 1800 1800 1800 1800 1800 1800 1800 1800 1800 1800 1809 1809 1809 1809 1809 1809 1809 1809 1809 1809 1809 1809 1809 1819 1819 1819 1819 1819 1819 1819 1809 1819 1809 1819 1819 1819 1819 1819 1828 1828 1828 1828 1828 1828 1828 1828 1828 1828 1828 1828 1828 1819 1819 1828 1828 1838 1838 1838 1838 1838 1838 1838 1838 1848 1848 1848 0 0 0 0 0 0 0 0 0 0 0 0 0 0 0 0 0 0 0 0 0 0 0 0 0 0 0 0 0 0 0 0 0 0 0 0 0 0 0 0 0
    1542 1542 1549 1549 1549 1549 1549 1542 1542 1542 1549 1549 1549 1549 1549 1549 1549 1549 1549 1549 1549 1549 1556 1563 1563 1563 1563 1563 1563 1571 1571 1571 1571 1571 1571 1571 1571 1571 1571 1571 1571 1571 1578 1571 1571 1571 1578 1578 1578 1578 1578 1578 1578 1578 1578 1578 1578 1578 1578 1578 1578 1578 1578 1578 1578 1578 1585 1585 1585 1585 1592 1592 1600 1600 1600 1600 1600 1600 1600 1600 1600 1600 1600 1600 1600 1600 1607 1607 1600 1600 1600 1600 1600 1600 1600 1600 1607 1607 1607 1607 1607 1607 1607 1607 1607 1607 1607 1607 1607 1607 1607 1607 1615 1615 1615 1615 1615 1615 1615 1622 1622 1622 1622 1630 1630 1630 1630 1630 1630 1630 1630 1630 1638 1638 1638 1638 1638 1638 1638 1638 1638 1638 1645 1638 1638 1638 1638 1638 1638 1638 1638 1638 1638 1638 1638 1638 1638 1638 1638 1645 1645 1653 1653 1653 1653 1653 1661 1661 1661 1661 1661 1661 1661 1661 1661 1661 1661 1661 1661 1661 1661 1661 1661 1661 1669 1669 1669 1669 1669 1669 1669 1669 1669 1669 1669 1677 1677 1677 1677 1677 1677 1677 1677 1677 1677 1677 1677 1677 1677 1686 1686 1686 1694 1694 1694 1694 1694 1694 1694 1694 1694 1694 1694 1694 1694 1694 1694 1702 1702 1694 1694 1694 1694 1694 1702 1702 1702 1702 1702 1702 1711 1711 1711 1711 1711 1711 1711 1711 1719 1719 1719 1719 1711 1719 1719 1719 1719 1719 1719 1728 1728 1719 1719 1719 1719 1719 1719 1728 1728 1728 1728 1728 1728 1728 1728 1728 1728 1728 1728 1728 1728 1728 1728 1728 1728 1728 1736 1736 1736 1736 1736 1736 1736 1736 1736 1736 1736 1736 1736 1745 1745 1745 1745 1745 1754 1754 1754 1754 1754 1754 1754 1754 1754 1754 1754 1754 1754 1754 1754 1754 1763 1763 1763 1763 1763 1763 1763 1763 1763 1763 1772 1772 1772 1772 1772 1772 1772 1772 1772 1772 1772 1772 1772 1772 1772 1772 1781 1781 1781 1781 1772 1781 1781 1781 1781 1781 1781 1790 1781 1790 1790 1781 1781 1781 1800 1790 1800 1781 1790 1800 1800 1800 1800 1800 1800 1800 1800 1800 1800 1800 1809 1809 1809 1809 1809 1809 1809 1809 1809 1809 1809 1809 1809 1809 1809 1819 1819 1819 1819 1819 1819 1819 1819 1819 1819 1819 1819 1819 1819 1819 1819 1828 1828 1828 1828 1828 1828 1828 1828 1828 1828 1828 1828 1828 1819 1819 1828 1828 1838 1838 1838 1838 1838 1848 1848 1848 1848 1848 1848 0 0 0 0 0 0 0 0 0 0 0 0 0 0 0 0 0 0 0 0 0 0 0 0 0 0 0 0 0 0 0 0 0 0 0 0 0 0 0 0 0
    1542 1542 1549 1549 1549 1549 1549 1549 1549 1549 1549 1549 1549 1549 1549 1549 1549 1549 1549 1549 1549 1549 1549 1556 1556 1556 1563 1563 1563 1571 1571 1571 1571 1571 1571 1571 1571 1571 1571 1571 1571 1571 1578 1578 1571 1571 1578 1578 1578 1578 1578 1578 1578 1578 1578 1578 1578 1578 1578 1578 1578 1578 1578 1578 1578 1578 1578 1585 1585 1585 1592 1592 1600 1600 1600 1600 1600 1600 1600 1600 1600 1600 1600 1600 1600 1600 1607 1607 1600 1600 1600 1600 1600 1600 1600 1607 1607 1607 1607 1607 1607 1607 1607 1607 1607 1607 1607 1607 1607 1607 1615 1615 1615 1615 1615 1615 1615 1615 1615 1615 1615 1622 1622 1622 1630 1630 1630 1630 1630 1630 1630 1630 1630 1630 1638 1638 1638 1638 1638 1638 1638 1645 1645 1645 1645 1645 1638 1638 1638 1638 1638 1638 1638 1638 1638 1645 1645 1645 1645 1645 1645 1653 1653 1653 1653 1653 1653 1653 1653 1653 1661 1661 1661 1661 1661 1669 1669 1661 1661 1661 1661 1661 1661 1661 1669 1669 1669 1669 1669 1669 1669 1669 1669 1669 1669 1677 1677 1677 1677 1677 1677 1686 1677 1677 1677 1677 1677 1686 1677 1686 1686 1694 1694 1694 1694 1694 1694 1694 1694 1694 1694 1694 1694 1694 1694 1694 1694 1694 1702 1694 1694 1694 1694 1694 1702 1702 1702 1702 1702 1702 1702 1702 1702 1702 1702 1711 1711 1711 1711 1719 1719 1719 1719 1719 1719 1719 1719 1719 1728 1728 1728 1728 1728 1728 1728 1728 1728 1728 1728 1728 1728 1728 1728 1728 1728 1728 1728 1728 1728 1728 1728 1728 1728 1728 1736 1728 1736 1736 1736 1736 1736 1736 1736 1736 1736 1736 1736 1736 1736 1736 1745 1745 1745 1745 1754 1754 1754 1754 1754 1754 1754 1754 1754 1754 1754 1754 1754 1754 1754 1754 1763 1763 1763 1763 1763 1763 1763 1763 1763 1763 1772 1772 1772 1772 1772 1772 1772 1772 1772 1772 1772 1772 1772 1772 1772 1772 1772 1772 1772 1772 1772 1772 1772 1781 1781 1781 1781 1790 1781 1790 1790 1790 1781 1790 1800 1800 1800 1790 1790 1800 1800 1800 1800 1800 1800 1800 1800 1800 1800 1800 1809 1809 1809 1809 1809 1809 1809 1809 1809 1809 1809 1809 1809 1809 1809 1819 1819 1819 1819 1819 1819 1819 1819 1809 1819 1819 1819 1819 1819 1819 1819 1828 1828 1828 1828 1828 1828 1828 1828 1828 1828 1828 1828 1828 1819 1828 1828 1828 1838 1838 1838 1838 1838 1848 1848 1848 1848 1848 1848 0 0 0 0 0 0 0 0 0 0 0 0 0 0 0 0 0 0 0 0 0 0 0 0 0 0 0 0 0 0 0 0 0 0 0 0 0 0 0 0 0
    1542 1542 1542 1542 1542 1549 1542 1549 1549 1549 1549 1549 1549 1549 1549 1549 1549 1549 1549 1549 1549 1549 1549 1549 1549 1556 1563 1571 1571 1571 1571 1571 1571 1571 1571 1571 1571 1571 1571 1571 1571 1571 1578 1578 1578 1578 1578 1578 1578 1578 1578 1578 1578 1578 1578 1578 1578 1578 1578 1578 1578 1578 1578 1578 1578 1585 1585 1585 1585 1585 1592 1592 1592 1600 1600 1600 1600 1600 1600 1600 1600 1600 1600 1600 1600 1600 1607 1607 1600 1600 1600 1600 1600 1600 1600 1600 1607 1607 1607 1607 1607 1607 1615 1615 1615 1607 1607 1607 1607 1607 1607 1615 1615 1615 1615 1615 1615 1615 1615 1615 1615 1615 1622 1622 1622 1630 1630 1630 1630 1630 1630 1630 1630 1630 1638 1638 1638 1638 1638 1638 1638 1645 1645 1645 1645 1645 1645 1638 1638 1638 1638 1638 1638 1638 1638 1645 1645 1645 1645 1653 1653 1653 1653 1653 1653 1653 1653 1653 1653 1653 1661 1661 1661 1661 1669 1669 1669 1669 1669 1661 1661 1669 1669 1669 1669 1669 1669 1669 1669 1669 1669 1669 1669 1669 1669 1677 1677 1677 1677 1677 1677 1677 1677 1677 1677 1677 1677 1677 1686 1686 1686 1694 1694 1694 1694 1694 1694 1694 1694 1694 1694 1694 1694 1694 1694 1694 1694 1694 1702 1694 1694 1694 1694 1702 1702 1702 1702 1702 1702 1702 1702 1702 1702 1711 1702 1711 1702 1702 1711 1711 1711 1711 1711 1711 1711 1711 1711 1719 1728 1728 1728 1728 1728 1728 1728 1728 1728 1728 1728 1728 1728 1728 1728 1728 1728 1728 1728 1728 1728 1728 1728 1728 1728 1736 1736 1736 1736 1736 1736 1736 1736 1736 1736 1736 1736 1736 1736 1736 1736 1745 1745 1745 1749 1749 1754 1754 1754 1754 1754 1754 1754 1754 1754 1754 1754 1754 1754 1754 1754 1754 1763 1763 1763 1763 1763 1763 1763 1763 1763 1763 1763 1772 1772 1772 1772 1772 1772 1772 1772 1772 1772 1772 1772 1772 1772 1772 1772 1772 1781 1781 1781 1781 1781 1781 1781 1781 1781 1781 1781 1781 1781 1781 1781 1790 1800 1790 1790 1790 1790 1800 1800 1800 1800 1800 1800 1800 1800 1800 1800 1800 1800 1809 1809 1809 1809 1809 1809 1809 1809 1809 1809 1809 1809 1809 1809 1819 1819 1819 1819 1819 1819 1819 1819 1819 1819 1819 1819 1819 1828 1828 1828 1828 1828 1828 1828 1828 1828 1828 1828 1828 1828 1828 1828 1828 1828 1828 1828 1838 1838 1838 1838 1838 1848 1848 1848 1848 1848 1848 1848 0 0 0 0 0 0 0 0 0 0 0 0 0 0 0 0 0 0 0 0 0 0 0 0 0 0 0 0 0 0 0 0 0 0 0 0 0 0 0 0 0
    1542 1542 1542 1542 1542 1542 1542 1542 1549 1549 1549 1549 1549 1549 1549 1549 1549 1549 1549 1549 1549 1549 1549 1549 1552 1556 1556 1563 1571 1571 1571 1571 1571 1571 1571 1571 1571 1571 1571 1571 1571 1571 1571 1578 1578 1578 1578 1578 1578 1578 1578 1578 1578 1578 1578 1578 1578 1578 1578 1578 1578 1578 1578 1578 1578 1578 1578 1578 1578 1585 1585 1592 1592 1600 1600 1600 1600 1600 1600 1600 1600 1600 1600 1600 1600 1600 1607 1607 1600 1600 1600 1600 1600 1600 1600 1600 1607 1607 1607 1607 1607 1607 1607 1607 1607 1607 1607 1607 1607 1607 1607 1607 1615 1615 1615 1615 1615 1615 1615 1615 1615 1615 1622 1622 1622 1630 1630 1630 1630 1630 1630 1630 1630 1630 1630 1630 1630 1630 1638 1638 1638 1638 1645 1645 1645 1645 1645 1645 1638 1638 1638 1638 1638 1645 1638 1645 1645 1645 1645 1645 1653 1653 1653 1653 1653 1653 1653 1653 1653 1653 1661 1661 1661 1661 1669 1669 1669 1669 1669 1661 1661 1661 1669 1669 1669 1669 1669 1669 1669 1669 1669 1669 1669 1669 1669 1677 1677 1677 1677 1677 1677 1677 1677 1677 1677 1677 1677 1677 1686 1686 1686 1694 1694 1694 1694 1694 1694 1694 1694 1694 1694 1694 1694 1694 1694 1694 1694 1702 1702 1702 1702 1694 1694 1702 1702 1702 1702 1702 1702 1702 1702 1702 1702 1702 1702 1711 1702 1711 1711 1711 1711 1711 1711 1711 1711 1719 1719 1719 1728 1728 1728 1728 1728 1728 1728 1728 1728 1728 1728 1728 1728 1728 1728 1728 1728 1728 1728 1728 1728 1728 1728 1736 1736 1736 1736 1736 1736 1736 1736 1736 1736 1736 1736 1736 1736 1736 1745 1745 1745 1745 1745 1745 1754 1754 1754 1754 1754 1754 1754 1754 1763 1763 1763 1763 1763 1763 1763 1754 1754 1763 1763 1763 1763 1763 1763 1763 1763 1763 1763 1763 1763 1772 1772 1772 1772 1772 1772 1772 1772 1772 1772 1772 1772 1772 1772 1781 1772 1781 1781 1781 1781 1781 1781 1781 1781 1781 1781 1781 1781 1781 1781 1781 1781 1790 1790 1790 1790 1790 1790 1800 1800 1800 1800 1800 1800 1800 1800 1800 1800 1800 1800 1809 1809 1809 1809 1809 1809 1809 1809 1809 1809 1809 1809 1809 1809 1819 1819 1819 1819 1819 1819 1819 1819 1819 1819 1819 1819 1828 1828 1828 1828 1828 1828 1828 1838 1828 1828 1828 1828 1828 1838 1838 1828 1828 1828 1828 1838 1838 1838 1838 1838 1848 1848 1848 1848 1848 1848 1848 1848 0 0 0 0 0 0 0 0 0 0 0 0 0 0 0 0 0 0 0 0 0 0 0 0 0 0 0 0 0 0 0 0 0 0 0 0 0 0 0 0 0
    1542 1542 1542 1542 1542 1542 1542 1542 1542 1549 1549 1549 1549 1549 1549 1549 1549 1549 1549 1549 1549 1549 1549 1549 1556 1556 1563 1571 1571 1571 1571 1571 1571 1571 1571 1571 1563 1563 1571 1571 1571 1571 1571 1578 1578 1578 1578 1578 1578 1578 1578 1578 1578 1578 1578 1578 1578 1578 1578 1578 1578 1578 1578 1578 1578 1578 1578 1578 1578 1585 1585 1585 1592 1592 1592 1600 1600 1600 1600 1600 1600 1600 1600 1600 1600 1600 1600 1600 1600 1600 1600 1600 1600 1600 1600 1600 1607 1607 1607 1607 1607 1607 1607 1607 1607 1607 1607 1607 1607 1607 1607 1615 1615 1615 1615 1615 1615 1615 1615 1615 1615 1615 1622 1622 1622 1630 1630 1630 1630 1630 1630 1630 1630 1630 1630 1630 1630 1630 1638 1638 1638 1645 1645 1645 1645 1645 1645 1645 1638 1638 1638 1638 1638 1645 1638 1645 1645 1645 1645 1645 1645 1653 1653 1653 1653 1653 1653 1653 1653 1653 1661 1661 1661 1661 1661 1669 1669 1669 1669 1661 1661 1661 1661 1661 1661 1669 1669 1669 1669 1669 1669 1669 1669 1669 1669 1677 1677 1669 1677 1677 1677 1677 1677 1677 1677 1677 1677 1677 1677 1686 1686 1694 1694 1694 1694 1694 1694 1694 1694 1694 1694 1694 1694 1694 1694 1694 1694 1702 1702 1702 1702 1694 1702 1702 1702 1702 1702 1702 1702 1702 1702 1702 1702 1711 1702 1711 1711 1711 1711 1711 1711 1711 1711 1711 1711 1711 1719 1719 1728 1728 1728 1728 1728 1728 1728 1728 1728 1728 1728 1728 1728 1728 1728 1728 1728 1728 1728 1728 1728 1728 1728 1728 1736 1736 1736 1736 1736 1736 1736 1736 1736 1736 1736 1736 1736 1745 1745 1745 1745 1745 1745 1745 1754 1754 1754 1754 1754 1754 1754 1754 1754 1754 1763 1763 1763 1763 1763 1763 1763 1763 1763 1763 1763 1763 1763 1763 1763 1763 1763 1772 1772 1772 1772 1772 1772 1772 1772 1772 1772 1772 1781 1772 1772 1772 1772 1781 1772 1781 1781 1781 1781 1781 1781 1781 1781 1781 1781 1781 1781 1781 1781 1781 1781 1790 1790 1790 1790 1790 1800 1800 1800 1800 1800 1800 1800 1800 1800 1800 1800 1800 1809 1809 1809 1809 1809 1809 1809 1809 1809 1809 1809 1809 1809 1809 1809 1809 1819 1819 1819 1819 1819 1819 1819 1819 1819 1819 1828 1828 1828 1828 1828 1828 1828 1828 1828 1828 1828 1828 1828 1828 1838 1838 1828 1828 1838 1838 1838 1838 1838 1848 1848 1848 1848 1848 1848 1848 1848 1848 1848 0 0 0 0 0 0 0 0 0 0 0 0 0 0 0 0 0 0 0 0 0 0 0 0 0 0 0 0 0 0 0 0 0 0 0 0 0 0 0 0 0
    1542 1542 1542 1542 1542 1542 1542 1542 1542 1549 1549 1549 1549 1549 1549 1549 1549 1549 1549 1549 1549 1549 1549 1549 1556 1556 1556 1563 1571 1571 1571 1571 1571 1571 1563 1563 1563 1563 1571 1571 1571 1571 1578 1578 1578 1578 1571 1571 1578 1578 1578 1578 1578 1578 1578 1578 1578 1578 1578 1578 1578 1578 1578 1578 1578 1578 1578 1578 1578 1578 1585 1585 1585 1592 1592 1600 1600 1600 1600 1600 1600 1600 1600 1600 1600 1600 1600 1600 1600 1600 1600 1600 1600 1600 1600 1600 1607 1607 1607 1607 1607 1607 1607 1607 1607 1607 1607 1607 1607 1607 1607 1607 1615 1615 1615 1615 1615 1615 1615 1615 1615 1615 1615 1622 1622 1630 1630 1630 1630 1630 1630 1630 1630 1630 1630 1630 1630 1630 1638 1638 1638 1645 1645 1645 1645 1645 1645 1645 1645 1645 1645 1638 1645 1645 1645 1645 1645 1645 1645 1645 1645 1653 1653 1653 1653 1653 1653 1653 1653 1653 1653 1661 1661 1661 1661 1661 1669 1669 1669 1661 1661 1661 1661 1661 1661 1661 1661 1669 1669 1669 1669 1669 1669 1669 1677 1677 1677 1677 1677 1669 1669 1677 1677 1677 1669 1669 1677 1677 1677 1677 1677 1686 1686 1686 1694 1694 1694 1694 1694 1694 1694 1694 1694 1694 1694 1694 1702 1702 1702 1702 1702 1702 1702 1702 1702 1702 1702 1702 1702 1702 1702 1702 1702 1711 1711 1711 1711 1711 1711 1702 1702 1711 1711 1711 1711 1711 1719 1719 1728 1728 1728 1728 1728 1728 1728 1728 1728 1728 1728 1728 1728 1728 1728 1728 1728 1728 1728 1728 1728 1728 1736 1736 1736 1736 1736 1736 1736 1736 1736 1736 1736 1736 1736 1736 1736 1736 1745 1745 1745 1745 1745 1745 1754 1754 1754 1754 1754 1754 1754 1763 1763 1763 1763 1763 1763 1763 1763 1763 1763 1763 1763 1763 1763 1763 1763 1763 1763 1763 1763 1772 1772 1772 1772 1772 1772 1772 1772 1772 1772 1772 1772 1772 1772 1781 1772 1781 1781 1781 1781 1781 1781 1781 1781 1781 1781 1781 1781 1790 1781 1781 1790 1781 1781 1790 1790 1790 1800 1800 1800 1800 1800 1800 1800 1800 1800 1800 1800 1800 1800 1800 1800 1800 1800 1809 1809 1809 1809 1809 1809 1809 1809 1809 1809 1809 1809 1809 1819 1819 1819 1819 1819 1819 1819 1819 1819 1819 1819 1828 1828 1828 1828 1828 1838 1838 1838 1828 1838 1838 1838 1838 1838 1838 1838 1838 1838 1838 1838 1838 1838 1848 1848 1848 1848 1848 1848 1848 1848 1848 1848 0 0 0 0 0 0 0 0 0 0 0 0 0 0 0 0 0 0 0 0 0 0 0 0 0 0 0 0 0 0 0 0 0 0 0 0 0 0 0 0 0
    1542 1542 1549 1549 1542 1542 1542 1549 1549 1549 1549 1549 1549 1549 1549 1549 1549 1549 1549 1549 1552 1552 1549 1556 1556 1556 1563 1563 1571 1571 1571 1571 1571 1571 1563 1563 1563 1563 1571 1571 1571 1571 1578 1578 1578 1578 1578 1578 1578 1578 1578 1578 1578 1578 1578 1578 1578 1578 1578 1578 1578 1578 1578 1578 1578 1578 1578 1578 1578 1578 1578 1585 1585 1592 1592 1600 1600 1600 1600 1600 1600 1600 1600 1600 1600 1600 1600 1600 1600 1600 1600 1600 1600 1600 1600 1600 1607 1607 1607 1607 1607 1607 1607 1607 1607 1607 1607 1607 1607 1607 1607 1615 1615 1615 1615 1615 1615 1615 1615 1615 1615 1615 1615 1615 1622 1630 1630 1630 1630 1630 1630 1630 1630 1630 1630 1630 1630 1630 1638 1638 1638 1645 1645 1645 1645 1645 1645 1645 1645 1645 1645 1645 1645 1645 1645 1645 1645 1645 1645 1645 1645 1653 1653 1653 1653 1653 1661 1653 1653 1653 1661 1661 1661 1661 1661 1661 1661 1669 1661 1661 1661 1661 1661 1661 1661 1661 1661 1669 1669 1669 1669 1669 1669 1669 1677 1677 1677 1677 1669 1669 1669 1669 1677 1677 1677 1677 1677 1677 1677 1686 1686 1686 1694 1694 1694 1694 1694 1694 1694 1694 1694 1694 1694 1694 1694 1694 1694 1702 1702 1702 1702 1694 1702 1702 1702 1702 1702 1702 1702 1702 1702 1702 1702 1702 1711 1711 1711 1711 1711 1702 1702 1702 1711 1711 1711 1711 1719 1719 1728 1728 1728 1728 1728 1728 1728 1728 1728 1728 1728 1728 1728 1728 1728 1728 1728 1728 1728 1728 1736 1736 1736 1736 1736 1736 1736 1736 1736 1736 1736 1736 1736 1736 1736 1736 1736 1736 1745 1745 1745 1745 1745 1745 1754 1745 1745 1754 1745 1754 1754 1754 1754 1754 1754 1763 1763 1763 1763 1763 1763 1763 1763 1763 1763 1763 1763 1763 1772 1763 1772 1772 1772 1772 1772 1772 1772 1772 1772 1772 1772 1772 1772 1772 1772 1781 1772 1781 1772 1781 1790 1790 1781 1781 1781 1781 1781 1781 1781 1781 1781 1781 1781 1790 1790 1790 1790 1790 1800 1800 1800 1800 1800 1800 1800 1800 1800 1800 1800 1800 1800 1800 1800 1800 1800 1809 1809 1809 1809 1809 1809 1809 1809 1809 1809 1809 1809 1809 1809 1809 1809 1819 1819 1819 1819 1819 1819 1819 1819 1828 1828 1828 1828 1838 1838 1838 1838 1838 1838 1838 1838 1838 1838 1838 1838 1838 1838 1838 1838 1838 1838 1848 1848 1848 1848 1848 1848 1848 1848 1848 1848 0 0 0 0 0 0 0 0 0 0 0 0 0 0 0 0 0 0 0 0 0 0 0 0 0 0 0 0 0 0 0 0 0 0 0 0 0 0 0 0 0
    1542 1542 1542 1542 1542 1542 1542 1549 1549 1549 1549 1549 1549 1549 1549 1549 1549 1549 1549 1549 1556 1556 1549 1549 1563 1563 1563 1563 1571 1571 1571 1571 1571 1571 1563 1563 1563 1571 1571 1571 1571 1578 1578 1578 1578 1578 1578 1578 1578 1578 1578 1578 1578 1578 1578 1578 1578 1578 1578 1578 1578 1585 1578 1578 1585 1578 1578 1578 1578 1585 1585 1585 1585 1585 1592 1592 1600 1600 1600 1600 1600 1600 1600 1600 1600 1600 1600 1600 1600 1600 1600 1600 1600 1600 1600 1607 1607 1607 1607 1607 1607 1607 1607 1607 1607 1607 1607 1607 1607 1607 1615 1615 1615 1622 1622 1615 1622 1615 1615 1615 1615 1615 1615 1622 1622 1630 1630 1630 1630 1630 1630 1630 1630 1630 1630 1630 1630 1630 1638 1638 1638 1638 1645 1645 1645 1645 1645 1645 1645 1645 1645 1645 1645 1645 1645 1645 1645 1645 1645 1645 1645 1653 1653 1653 1653 1653 1653 1653 1653 1653 1661 1661 1661 1661 1661 1661 1661 1661 1661 1661 1661 1661 1661 1661 1661 1661 1661 1661 1669 1669 1669 1669 1669 1669 1669 1677 1677 1677 1677 1677 1677 1677 1677 1677 1677 1677 1686 1686 1686 1686 1677 1686 1686 1694 1694 1694 1694 1694 1694 1694 1694 1694 1694 1694 1694 1694 1694 1702 1702 1702 1702 1702 1702 1702 1702 1702 1702 1702 1702 1702 1702 1702 1702 1702 1711 1711 1711 1711 1711 1702 1702 1702 1711 1711 1711 1719 1719 1728 1728 1728 1728 1728 1728 1728 1728 1728 1728 1728 1728 1728 1728 1728 1728 1728 1728 1736 1736 1736 1736 1736 1736 1736 1736 1736 1736 1736 1736 1736 1736 1736 1736 1736 1736 1736 1736 1736 1745 1745 1745 1745 1745 1745 1754 1749 1749 1754 1749 1754 1754 1754 1754 1754 1763 1763 1763 1763 1763 1763 1763 1763 1763 1763 1763 1763 1763 1763 1763 1763 1772 1772 1772 1772 1772 1772 1772 1772 1772 1781 1781 1781 1781 1781 1781 1781 1781 1781 1781 1781 1790 1790 1790 1790 1790 1790 1790 1790 1790 1790 1781 1781 1790 1781 1790 1790 1790 1790 1790 1790 1800 1800 1800 1800 1800 1800 1800 1800 1800 1800 1800 1800 1800 1800 1800 1809 1809 1809 1809 1809 1809 1809 1809 1809 1809 1809 1809 1809 1819 1819 1809 1819 1819 1819 1819 1819 1819 1819 1819 1828 1828 1828 1828 1828 1838 1838 1838 1828 1838 1838 1838 1838 1838 1838 1838 1838 1838 1838 1838 1838 1838 1848 1848 1848 1848 1848 1848 1848 1848 1848 1848 0 0 0 0 0 0 0 0 0 0 0 0 0 0 0 0 0 0 0 0 0 0 0 0 0 0 0 0 0 0 0 0 0 0 0 0 0 0 0 0 0
    1542 1542 1549 1549 1542 1549 1549 1549 1549 1549 1549 1549 1549 1549 1549 1549 1549 1549 1549 1549 1556 1556 1552 1556 1556 1556 1556 1563 1563 1571 1571 1571 1563 1563 1563 1563 1563 1563 1571 1571 1571 1571 1571 1571 1571 1571 1571 1571 1578 1578 1578 1578 1578 1578 1578 1578 1578 1578 1578 1578 1578 1578 1578 1578 1585 1585 1585 1585 1585 1585 1585 1585 1585 1585 1592 1592 1592 1600 1600 1592 1600 1600 1600 1600 1600 1600 1600 1600 1600 1600 1600 1600 1600 1600 1607 1607 1607 1607 1607 1607 1607 1607 1607 1607 1607 1607 1607 1607 1607 1607 1615 1615 1615 1615 1622 1615 1622 1615 1615 1615 1615 1615 1615 1622 1622 1630 1630 1630 1630 1630 1630 1630 1630 1630 1630 1630 1630 1630 1638 1638 1638 1638 1638 1645 1638 1638 1638 1645 1645 1645 1645 1645 1645 1645 1645 1645 1645 1645 1645 1645 1645 1653 1653 1653 1653 1653 1661 1661 1653 1653 1661 1661 1661 1661 1661 1661 1661 1661 1661 1661 1661 1661 1661 1661 1661 1661 1661 1661 1661 1669 1669 1669 1669 1669 1669 1669 1669 1677 1669 1669 1669 1669 1677 1677 1677 1677 1677 1677 1677 1677 1677 1686 1686 1686 1694 1694 1694 1694 1694 1694 1694 1694 1694 1694 1694 1694 1694 1702 1702 1694 1702 1694 1702 1702 1702 1702 1702 1702 1702 1702 1702 1702 1702 1702 1711 1711 1711 1711 1711 1702 1702 1702 1711 1711 1711 1711 1719 1719 1728 1728 1719 1719 1719 1728 1728 1728 1719 1719 1728 1728 1728 1728 1728 1728 1728 1728 1736 1736 1736 1736 1736 1736 1736 1736 1736 1736 1745 1736 1736 1736 1736 1736 1736 1736 1736 1736 1745 1745 1745 1745 1745 1745 1754 1754 1754 1754 1754 1754 1754 1754 1754 1754 1763 1763 1763 1763 1763 1763 1763 1763 1763 1763 1763 1763 1763 1763 1763 1763 1772 1772 1772 1772 1772 1772 1772 1772 1772 1772 1772 1781 1781 1781 1781 1781 1781 1781 1781 1781 1781 1790 1781 1790 1790 1790 1790 1790 1790 1790 1790 1790 1790 1781 1781 1781 1790 1790 1790 1790 1790 1800 1800 1800 1800 1800 1800 1800 1800 1800 1800 1800 1800 1800 1800 1800 1809 1809 1809 1809 1809 1809 1809 1809 1809 1809 1809 1809 1809 1809 1809 1809 1819 1819 1819 1819 1819 1819 1828 1828 1828 1828 1828 1838 1838 1838 1838 1838 1838 1838 1838 1838 1838 1838 1838 1838 1838 1838 1838 1838 1838 1848 1848 1848 1848 1848 1848 1848 1848 1848 1848 0 0 0 0 0 0 0 0 0 0 0 0 0 0 0 0 0 0 0 0 0 0 0 0 0 0 0 0 0 0 0 0 0 0 0 0 0 0 0 0 0
    1542 1549 1542 1542 1549 1549 1542 1549 1549 1549 1549 1549 1549 1549 1549 1549 1549 1549 1549 1556 1556 1556 1556 1556 1556 1563 1563 1563 1563 1571 1571 1563 1563 1563 1563 1563 1563 1563 1571 1571 1571 1571 1571 1571 1578 1578 1578 1578 1578 1571 1571 1571 1578 1578 1578 1578 1578 1578 1578 1578 1578 1578 1578 1578 1585 1585 1585 1585 1585 1585 1585 1585 1592 1592 1592 1592 1592 1592 1592 1592 1600 1600 1600 1600 1600 1600 1600 1600 1600 1600 1600 1600 1600 1600 1607 1607 1607 1607 1607 1607 1607 1607 1607 1607 1607 1607 1607 1607 1607 1607 1615 1615 1615 1615 1615 1615 1615 1615 1615 1615 1622 1622 1622 1622 1622 1630 1630 1630 1630 1630 1630 1630 1630 1630 1630 1630 1630 1630 1638 1638 1638 1638 1638 1638 1638 1638 1638 1645 1645 1645 1645 1645 1645 1645 1645 1645 1645 1645 1645 1645 1645 1653 1653 1653 1653 1661 1661 1661 1661 1661 1661 1661 1661 1661 1661 1661 1661 1661 1661 1661 1661 1661 1661 1661 1661 1669 1661 1669 1669 1669 1669 1669 1669 1669 1669 1669 1669 1669 1669 1669 1669 1669 1677 1677 1677 1677 1677 1677 1686 1686 1677 1686 1686 1694 1694 1694 1694 1694 1694 1694 1694 1694 1694 1694 1694 1694 1694 1702 1702 1702 1702 1702 1702 1702 1702 1702 1702 1702 1702 1702 1702 1702 1702 1702 1711 1711 1711 1711 1711 1702 1702 1702 1711 1711 1711 1711 1719 1719 1728 1719 1719 1719 1719 1728 1719 1719 1719 1719 1728 1728 1728 1728 1728 1736 1728 1736 1736 1736 1736 1736 1736 1736 1736 1736 1745 1745 1745 1745 1736 1736 1736 1736 1736 1736 1736 1745 1745 1745 1745 1745 1745 1745 1754 1754 1754 1754 1754 1754 1754 1754 1754 1763 1754 1763 1763 1763 1763 1763 1763 1763 1763 1763 1763 1763 1763 1763 1763 1763 1772 1772 1772 1772 1772 1772 1772 1772 1772 1772 1772 1772 1772 1772 1781 1781 1781 1772 1772 1772 1781 1781 1781 1781 1781 1790 1790 1790 1790 1790 1781 1781 1790 1781 1790 1790 1790 1790 1790 1790 1790 1800 1800 1800 1800 1800 1800 1800 1800 1800 1800 1800 1800 1800 1800 1800 1800 1809 1809 1809 1809 1809 1809 1809 1809 1809 1809 1809 1809 1809 1819 1819 1819 1819 1819 1819 1819 1819 1828 1828 1828 1828 1828 1838 1838 1838 1838 1838 1838 1838 1838 1838 1838 1838 1838 1838 1838 1838 1838 1838 1838 1848 1848 1848 1848 1848 1848 1848 1848 1848 1848 0 0 0 0 0 0 0 0 0 0 0 0 0 0 0 0 0 0 0 0 0 0 0 0 0 0 0 0 0 0 0 0 0 0 0 0 0 0 0 0 0
    1542 1549 1542 1542 1549 1549 1549 1549 1549 1549 1549 1549 1549 1549 1549 1549 1549 1552 1552 1556 1556 1556 1556 1556 1556 1563 1563 1563 1563 1563 1563 1563 1563 1563 1563 1563 1563 1571 1571 1571 1571 1571 1571 1571 1578 1578 1578 1578 1578 1571 1571 1571 1571 1571 1571 1578 1578 1578 1578 1578 1578 1578 1585 1585 1585 1585 1585 1585 1585 1585 1585 1585 1585 1585 1585 1592 1592 1592 1600 1600 1600 1600 1600 1600 1600 1600 1600 1600 1600 1600 1600 1600 1600 1600 1607 1607 1607 1607 1607 1607 1607 1607 1607 1607 1607 1607 1607 1607 1607 1615 1615 1615 1615 1615 1615 1615 1615 1615 1615 1615 1622 1622 1622 1622 1622 1630 1630 1630 1630 1630 1630 1630 1638 1638 1638 1638 1630 1638 1638 1638 1638 1638 1638 1638 1638 1638 1638 1638 1638 1638 1638 1645 1645 1645 1638 1638 1638 1638 1645 1645 1645 1653 1653 1653 1653 1661 1661 1661 1661 1661 1661 1661 1661 1661 1661 1661 1661 1661 1661 1661 1661 1661 1661 1661 1661 1669 1661 1669 1669 1669 1669 1669 1669 1669 1669 1669 1669 1669 1669 1669 1669 1669 1677 1677 1677 1677 1677 1677 1677 1677 1677 1686 1686 1686 1686 1694 1694 1694 1694 1694 1694 1694 1694 1694 1694 1694 1702 1702 1702 1702 1702 1702 1702 1702 1702 1702 1702 1702 1702 1702 1702 1702 1702 1702 1711 1711 1711 1711 1711 1702 1702 1711 1711 1711 1711 1711 1719 1719 1719 1719 1719 1719 1719 1728 1719 1719 1719 1719 1728 1728 1728 1728 1728 1736 1736 1736 1736 1736 1736 1736 1736 1736 1736 1736 1736 1736 1745 1745 1736 1745 1745 1736 1736 1736 1736 1745 1745 1745 1745 1745 1745 1745 1754 1754 1745 1754 1754 1754 1754 1754 1754 1763 1754 1763 1763 1763 1763 1763 1763 1763 1763 1763 1763 1763 1763 1763 1763 1763 1772 1772 1772 1772 1772 1772 1772 1772 1772 1772 1772 1772 1772 1772 1781 1781 1781 1772 1772 1772 1781 1781 1790 1790 1790 1790 1790 1790 1790 1781 1781 1781 1790 1790 1790 1790 1790 1790 1790 1790 1790 1790 1790 1800 1800 1800 1800 1800 1800 1800 1800 1800 1800 1800 1800 1800 1809 1809 1809 1809 1809 1809 1809 1809 1809 1809 1809 1809 1809 1809 1819 1819 1819 1819 1819 1819 1819 1819 1819 1828 1828 1828 1828 1838 1838 1838 1838 1838 1838 1838 1838 1838 1838 1838 1838 1838 1838 1838 1838 1838 1838 1848 1848 1848 1848 1848 1848 1848 1848 1848 1848 0 0 0 0 0 0 0 0 0 0 0 0 0 0 0 0 0 0 0 0 0 0 0 0 0 0 0 0 0 0 0 0 0 0 0 0 0 0 0 0 0
    1549 1552 1549 1549 1552 1552 1552 1552 1552 1552 1552 1552 1552 1552 1552 1552 1552 1556 1556 1556 1556 1556 1556 1556 1556 1563 1556 1563 1563 1563 1563 1563 1563 1563 1563 1571 1563 1571 1571 1571 1571 1571 1571 1571 1578 1578 1578 1578 1578 1571 1571 1571 1571 1571 1571 1578 1578 1578 1578 1578 1578 1578 1578 1585 1585 1585 1585 1585 1585 1585 1585 1585 1592 1592 1592 1592 1592 1592 1600 1592 1600 1600 1600 1600 1600 1600 1600 1600 1600 1600 1600 1600 1600 1600 1607 1607 1607 1607 1607 1607 1607 1607 1607 1607 1607 1607 1607 1607 1607 1607 1615 1615 1615 1615 1615 1615 1615 1615 1615 1615 1622 1622 1622 1622 1622 1622 1622 1630 1630 1630 1630 1638 1638 1638 1638 1638 1630 1638 1638 1638 1638 1638 1638 1638 1638 1638 1638 1638 1645 1645 1645 1645 1645 1645 1645 1645 1645 1645 1645 1645 1645 1653 1653 1653 1653 1653 1661 1653 1653 1653 1661 1661 1661 1661 1661 1661 1661 1661 1661 1661 1661 1661 1661 1669 1669 1669 1669 1669 1669 1669 1669 1669 1669 1669 1669 1669 1669 1669 1677 1677 1677 1677 1677 1677 1677 1677 1677 1677 1677 1677 1677 1686 1686 1686 1686 1694 1694 1694 1694 1694 1694 1694 1694 1694 1694 1694 1694 1694 1694 1702 1702 1702 1702 1702 1702 1702 1702 1702 1702 1702 1702 1702 1702 1702 1711 1711 1711 1711 1711 1711 1711 1711 1711 1711 1711 1711 1711 1728 1728 1728 1728 1719 1728 1728 1728 1728 1719 1728 1728 1728 1728 1728 1728 1728 1728 1736 1736 1736 1736 1736 1736 1736 1736 1736 1736 1745 1736 1736 1736 1736 1736 1736 1736 1736 1736 1736 1745 1745 1745 1745 1745 1749 1754 1754 1749 1754 1754 1754 1754 1754 1763 1763 1763 1763 1763 1763 1763 1763 1763 1763 1763 1763 1763 1763 1763 1763 1763 1763 1772 1772 1772 1772 1772 1772 1772 1772 1772 1772 1772 1772 1772 1772 1772 1781 1781 1772 1772 1772 1781 1781 1781 1781 1781 1781 1781 1790 1790 1781 1781 1781 1790 1781 1790 1790 1790 1790 1790 1790 1790 1790 1790 1800 1800 1800 1800 1800 1800 1800 1800 1800 1800 1800 1800 1800 1809 1800 1809 1809 1809 1809 1809 1809 1809 1809 1809 1809 1819 1819 1819 1819 1819 1819 1819 1819 1819 1819 1819 1828 1828 1828 1828 1838 1838 1838 1838 1838 1838 1838 1838 1838 1838 1838 1838 1838 1838 1838 1848 1838 1838 1838 1838 1838 1838 1838 1838 1848 1848 1848 1848 0 0 0 0 0 0 0 0 0 0 0 0 0 0 0 0 0 0 0 0 0 0 0 0 0 0 0 0 0 0 0 0 0 0 0 0 0 0 0 0 0
    1549 1556 1556 1556 1556 1556 1556 1556 1556 1556 1556 1556 1556 1556 1556 1556 1556 1563 1563 1563 1563 1563 1556 1563 1563 1563 1563 1563 1571 1571 1571 1571 1571 1571 1571 1578 1578 1578 1578 1578 1578 1578 1578 1585 1585 1585 1585 1585 1585 1578 1578 1578 1578 1578 1578 1585 1585 1585 1585 1585 1585 1585 1592 1592 1592 1592 1600 1600 1592 1600 1592 1592 1592 1592 1600 1600 1600 1600 1600 1600 1607 1607 1607 1607 1607 1607 1607 1615 1607 1607 1615 1615 1615 1615 1615 1615 1615 1615 1615 1615 1615 1615 1615 1615 1615 1615 1615 1615 1622 1622 1622 1622 1622 1622 1622 1622 1622 1622 1622 1622 1630 1630 1630 1630 1630 1630 1630 1638 1638 1638 1638 1638 1645 1645 1645 1645 1645 1645 1645 1645 1645 1645 1645 1645 1645 1645 1645 1645 1645 1645 1645 1645 1653 1653 1653 1653 1653 1653 1661 1653 1653 1661 1661 1661 1661 1661 1661 1661 1661 1661 1661 1669 1669 1669 1669 1669 1669 1669 1669 1669 1669 1677 1677 1677 1677 1677 1677 1677 1677 1677 1677 1677 1677 1677 1677 1677 1677 1677 1677 1686 1686 1686 1686 1686 1686 1686 1686 1686 1686 1686 1686 1686 1694 1694 1694 1694 1694 1702 1694 1702 1702 1702 1702 1702 1702 1702 1702 1702 1702 1702 1702 1702 1702 1711 1711 1711 1711 1711 1711 1711 1711 1711 1711 1711 1719 1719 1719 1719 1719 1719 1719 1719 1719 1719 1719 1719 1719 1728 1736 1736 1736 1736 1736 1728 1728 1719 1719 1719 1728 1728 1728 1728 1728 1728 1728 1736 1736 1736 1736 1736 1736 1736 1736 1736 1745 1745 1745 1745 1736 1745 1736 1745 1736 1736 1736 1745 1745 1745 1745 1745 1745 1754 1754 1754 1754 1754 1754 1754 1754 1754 1754 1754 1754 1763 1763 1763 1763 1763 1763 1763 1763 1763 1763 1763 1763 1763 1763 1763 1772 1772 1772 1772 1772 1772 1772 1772 1772 1772 1772 1772 1772 1772 1772 1781 1781 1772 1772 1772 1781 1781 1781 1781 1781 1781 1781 1790 1790 1781 1781 1781 1781 1781 1781 1790 1781 1790 1790 1790 1790 1790 1790 1800 1790 1800 1790 1800 1800 1800 1800 1800 1800 1800 1800 1800 1800 1800 1809 1809 1809 1809 1809 1809 1809 1809 1809 1809 1819 1819 1819 1819 1819 1819 1819 1819 1819 1828 1819 1828 1828 1828 1828 1838 1838 1838 1838 1838 1838 1838 1838 1838 1838 1838 1838 1838 1838 1838 1838 1838 1838 1838 1838 1838 1838 1838 1838 1838 1848 1848 1848 0 0 0 0 0 0 0 0 0 0 0 0 0 0 0 0 0 0 0 0 0 0 0 0 0 0 0 0 0 0 0 0 0 0 0 0 0 0 0 0 0
    1549 1556 1556 1556 1556 1556 1556 1556 1556 1556 1556 1556 1556 1556 1556 1556 1556 1556 1556 1556 1563 1563 1563 1563 1563 1563 1563 1563 1571 1563 1571 1571 1571 1571 1578 1578 1578 1578 1578 1578 1578 1585 1578 1585 1585 1585 1585 1585 1578 1578 1578 1578 1578 1578 1578 1585 1585 1585 1585 1585 1585 1592 1592 1592 1600 1600 1600 1600 1600 1600 1592 1592 1600 1592 1600 1600 1600 1600 1600 1600 1607 1607 1607 1607 1607 1607 1607 1607 1607 1607 1615 1607 1607 1615 1615 1615 1615 1615 1615 1615 1615 1615 1615 1615 1615 1615 1615 1615 1622 1622 1622 1622 1622 1622 1622 1622 1622 1622 1622 1622 1630 1622 1630 1630 1630 1630 1630 1638 1638 1638 1638 1638 1638 1645 1645 1645 1645 1645 1645 1645 1645 1645 1645 1645 1645 1645 1645 1645 1645 1645 1645 1645 1653 1653 1653 1653 1653 1653 1661 1661 1653 1661 1661 1661 1661 1661 1661 1661 1661 1661 1661 1669 1669 1669 1669 1669 1669 1669 1669 1669 1669 1669 1677 1677 1677 1677 1677 1677 1677 1677 1677 1677 1677 1677 1677 1677 1677 1677 1677 1686 1686 1686 1686 1686 1686 1694 1694 1694 1694 1694 1686 1686 1686 1686 1686 1694 1694 1694 1694 1694 1702 1702 1702 1702 1702 1702 1702 1702 1702 1702 1711 1711 1711 1711 1711 1711 1711 1711 1711 1711 1711 1711 1711 1711 1711 1711 1711 1711 1719 1719 1719 1719 1719 1719 1719 1719 1719 1728 1728 1736 1728 1728 1736 1728 1728 1728 1736 1736 1736 1736 1736 1736 1736 1736 1736 1736 1736 1745 1745 1745 1745 1745 1745 1745 1745 1745 1745 1745 1745 1749 1745 1749 1740 1745 1745 1749 1749 1749 1749 1749 1749 1754 1754 1754 1754 1754 1754 1754 1754 1754 1754 1754 1754 1763 1763 1763 1763 1763 1763 1763 1763 1763 1763 1763 1763 1763 1763 1763 1763 1772 1772 1772 1772 1772 1772 1763 1763 1772 1772 1772 1772 1772 1781 1790 1781 1772 1772 1772 1781 1781 1781 1781 1781 1790 1781 1790 1790 1781 1772 1781 1781 1781 1781 1781 1781 1781 1781 1781 1781 1790 1790 1790 1790 1790 1790 1800 1800 1800 1800 1800 1800 1800 1800 1800 1800 1800 1809 1809 1809 1809 1809 1809 1809 1809 1809 1809 1819 1809 1819 1809 1819 1819 1819 1819 1819 1819 1819 1828 1828 1828 1828 1828 1828 1838 1838 1838 1838 1838 1838 1838 1838 1838 1838 1838 1838 1838 1838 1838 1838 1838 1838 1838 1838 1838 1838 1838 1848 1848 1848 0 0 0 0 0 0 0 0 0 0 0 0 0 0 0 0 0 0 0 0 0 0 0 0 0 0 0 0 0 0 0 0 0 0 0 0 0 0 0 0 0
    1549 1549 1549 1556 1556 1556 1556 1556 1556 1556 1556 1556 1556 1556 1556 1556 1556 1556 1556 1563 1563 1563 1563 1563 1563 1563 1563 1563 1563 1563 1571 1571 1571 1571 1571 1578 1578 1578 1578 1585 1585 1585 1585 1585 1585 1585 1585 1585 1578 1578 1578 1578 1578 1578 1578 1585 1585 1585 1585 1585 1585 1585 1585 1592 1592 1592 1592 1600 1592 1592 1592 1592 1600 1592 1592 1600 1600 1600 1600 1600 1607 1607 1607 1607 1607 1607 1607 1607 1615 1607 1615 1615 1615 1615 1615 1615 1615 1615 1615 1615 1615 1615 1615 1615 1615 1615 1615 1615 1615 1615 1615 1615 1615 1622 1622 1622 1622 1622 1622 1622 1622 1622 1622 1622 1630 1630 1630 1638 1638 1638 1638 1638 1638 1638 1638 1638 1645 1645 1645 1645 1645 1645 1645 1645 1638 1645 1645 1645 1645 1645 1645 1653 1653 1653 1653 1653 1653 1661 1661 1661 1661 1661 1661 1661 1661 1661 1661 1661 1653 1661 1661 1661 1669 1669 1669 1669 1669 1669 1669 1669 1677 1677 1677 1677 1677 1677 1677 1677 1677 1677 1677 1677 1677 1677 1677 1677 1677 1677 1677 1686 1686 1686 1686 1686 1694 1686 1694 1686 1694 1694 1686 1686 1686 1686 1686 1686 1694 1694 1694 1694 1702 1702 1702 1702 1702 1702 1702 1702 1702 1702 1702 1711 1711 1711 1711 1711 1711 1711 1711 1711 1711 1711 1711 1711 1711 1711 1711 1711 1719 1719 1719 1719 1719 1719 1719 1719 1719 1736 1736 1736 1736 1736 1736 1736 1728 1728 1728 1728 1736 1736 1736 1736 1736 1736 1736 1736 1736 1745 1745 1745 1745 1745 1745 1745 1745 1745 1745 1745 1745 1754 1754 1754 1745 1754 1754 1754 1754 1754 1754 1754 1754 1763 1754 1754 1754 1754 1754 1763 1763 1763 1763 1763 1763 1772 1772 1772 1772 1772 1772 1772 1772 1772 1772 1772 1772 1772 1772 1772 1772 1781 1772 1781 1781 1781 1781 1781 1781 1781 1781 1781 1781 1781 1790 1790 1790 1781 1781 1781 1781 1781 1790 1790 1790 1790 1790 1790 1800 1790 1790 1790 1790 1790 1790 1790 1790 1790 1790 1790 1790 1800 1800 1800 1800 1800 1800 1809 1809 1809 1809 1809 1809 1809 1809 1809 1809 1809 1809 1809 1819 1819 1819 1819 1819 1819 1819 1819 1828 1828 1828 1828 1828 1828 1828 1828 1828 1828 1828 1838 1838 1828 1838 1838 1838 1848 1838 1848 1848 1848 1848 1848 1848 1848 1848 1848 1848 1848 1848 1848 1848 1848 1848 1848 1848 1858 1858 1858 1858 1858 1858 0 0 0 0 0 0 0 0 0 0 0 0 0 0 0 0 0 0 0 0 0 0 0 0 0 0 0 0 0 0 0 0 0 0 0 0 0 0 0 0 0
    1549 1549 1549 1556 1556 1556 1556 1556 1556 1556 1556 1556 1549 1556 1556 1556 1556 1563 1556 1563 1563 1563 1563 1563 1563 1563 1563 1563 1563 1571 1571 1571 1571 1571 1578 1578 1578 1578 1578 1585 1585 1585 1585 1585 1585 1585 1585 1585 1578 1578 1578 1578 1578 1578 1578 1585 1585 1585 1585 1585 1585 1585 1585 1585 1592 1592 1592 1592 1592 1592 1592 1592 1592 1592 1592 1600 1600 1600 1600 1600 1607 1607 1607 1607 1607 1607 1607 1607 1607 1607 1607 1607 1607 1607 1615 1615 1622 1615 1615 1622 1622 1615 1615 1615 1615 1615 1615 1615 1615 1615 1615 1615 1615 1622 1622 1622 1622 1622 1622 1622 1622 1622 1622 1630 1630 1630 1630 1638 1638 1638 1638 1638 1638 1638 1638 1645 1645 1645 1645 1645 1645 1645 1645 1645 1645 1645 1645 1645 1645 1645 1645 1645 1653 1653 1653 1653 1653 1661 1661 1661 1661 1661 1661 1661 1661 1661 1661 1661 1653 1653 1661 1661 1661 1669 1669 1669 1669 1669 1669 1669 1669 1669 1677 1677 1677 1677 1677 1677 1677 1677 1677 1677 1677 1677 1677 1677 1677 1677 1677 1686 1686 1686 1686 1686 1686 1686 1686 1694 1694 1694 1694 1694 1694 1694 1686 1686 1686 1694 1694 1694 1702 1702 1702 1702 1702 1702 1702 1702 1702 1702 1702 1711 1711 1711 1711 1711 1711 1711 1711 1711 1711 1711 1711 1711 1711 1711 1711 1711 1711 1719 1719 1719 1719 1719 1719 1719 1719 1736 1736 1736 1736 1728 1736 1736 1728 1728 1736 1736 1736 1736 1736 1736 1736 1736 1736 1736 1736 1745 1745 1745 1745 1745 1745 1745 1745 1745 1745 1745 1745 1754 1745 1754 1749 1754 1754 1754 1754 1754 1754 1754 1754 1754 1754 1754 1754 1754 1754 1763 1763 1763 1763 1763 1763 1772 1772 1772 1772 1772 1772 1772 1772 1772 1772 1772 1772 1772 1772 1772 1772 1781 1772 1781 1781 1781 1781 1772 1781 1781 1781 1781 1781 1781 1781 1790 1790 1790 1781 1781 1781 1781 1781 1790 1790 1790 1790 1790 1790 1790 1790 1790 1790 1790 1800 1800 1790 1790 1790 1790 1790 1790 1790 1800 1800 1800 1800 1809 1809 1809 1809 1809 1809 1809 1809 1809 1809 1809 1819 1819 1819 1819 1819 1819 1819 1819 1819 1819 1819 1828 1819 1828 1828 1828 1828 1819 1828 1828 1828 1828 1828 1828 1838 1838 1838 1838 1838 1848 1848 1848 1848 1848 1848 1848 1848 1848 1848 1848 1848 1848 1848 1848 1848 1848 1848 1848 1848 1858 1858 1858 1858 0 0 0 0 0 0 0 0 0 0 0 0 0 0 0 0 0 0 0 0 0 0 0 0 0 0 0 0 0 0 0 0 0 0 0 0 0 0 0 0 0
    1549 1549 1549 1556 1556 1556 1556 1556 1556 1556 1556 1556 1552 1556 1556 1556 1556 1556 1556 1556 1563 1563 1556 1563 1563 1563 1563 1563 1563 1571 1571 1571 1571 1571 1571 1578 1578 1578 1578 1578 1578 1578 1578 1578 1578 1578 1585 1585 1578 1578 1578 1578 1578 1578 1578 1585 1585 1585 1585 1585 1585 1585 1585 1585 1592 1592 1592 1592 1592 1592 1592 1592 1592 1592 1592 1600 1600 1600 1600 1600 1607 1607 1607 1607 1607 1607 1607 1607 1607 1607 1607 1607 1615 1615 1615 1615 1622 1615 1615 1622 1622 1622 1615 1615 1615 1615 1615 1615 1615 1615 1615 1615 1615 1622 1622 1622 1622 1622 1630 1622 1622 1622 1622 1630 1630 1630 1638 1638 1638 1638 1638 1638 1638 1638 1645 1645 1645 1645 1645 1645 1645 1645 1645 1645 1645 1645 1645 1645 1645 1645 1645 1645 1653 1653 1653 1653 1653 1661 1661 1661 1661 1661 1661 1661 1661 1661 1661 1653 1653 1653 1653 1661 1661 1661 1669 1669 1669 1669 1669 1669 1669 1669 1677 1677 1677 1677 1677 1677 1677 1677 1677 1677 1677 1677 1677 1677 1677 1677 1677 1686 1686 1686 1686 1686 1686 1686 1686 1686 1694 1686 1686 1686 1686 1686 1686 1686 1686 1694 1694 1694 1694 1702 1702 1702 1702 1702 1702 1702 1702 1702 1702 1702 1702 1702 1702 1711 1711 1711 1711 1711 1711 1711 1711 1711 1711 1711 1711 1711 1711 1719 1719 1719 1719 1719 1728 1719 1719 1728 1736 1736 1728 1728 1736 1728 1728 1728 1728 1728 1736 1728 1736 1736 1736 1736 1736 1745 1745 1745 1745 1745 1745 1745 1745 1745 1745 1745 1745 1745 1745 1754 1745 1754 1754 1754 1754 1754 1754 1754 1754 1754 1763 1754 1754 1763 1763 1754 1754 1763 1763 1763 1763 1763 1763 1772 1772 1772 1772 1772 1772 1772 1772 1772 1772 1772 1772 1772 1772 1772 1772 1781 1772 1772 1772 1772 1772 1772 1772 1781 1781 1781 1781 1781 1781 1790 1781 1781 1781 1781 1790 1781 1790 1790 1790 1790 1781 1790 1790 1790 1790 1800 1790 1790 1800 1800 1790 1790 1800 1800 1800 1800 1800 1800 1809 1800 1800 1809 1809 1809 1809 1809 1809 1809 1809 1809 1809 1819 1819 1819 1819 1819 1819 1819 1819 1819 1819 1819 1819 1819 1819 1828 1828 1828 1828 1828 1828 1828 1828 1828 1828 1828 1828 1828 1828 1838 1838 1838 1848 1848 1848 1848 1848 1848 1848 1848 1848 1848 1848 1848 1848 1848 1848 1848 1848 1858 1858 1858 1858 1858 1858 0 0 0 0 0 0 0 0 0 0 0 0 0 0 0 0 0 0 0 0 0 0 0 0 0 0 0 0 0 0 0 0 0 0 0 0 0 0 0 0 0
    1549 1549 1549 1556 1556 1556 1556 1556 1549 1549 1556 1556 1556 1556 1556 1556 1556 1556 1556 1563 1563 1571 1563 1563 1563 1571 1563 1563 1563 1563 1563 1571 1571 1571 1571 1571 1578 1578 1578 1578 1578 1578 1578 1578 1578 1578 1578 1578 1578 1578 1578 1578 1578 1578 1578 1585 1585 1585 1585 1585 1585 1585 1592 1592 1592 1592 1592 1592 1585 1592 1592 1592 1592 1592 1592 1600 1600 1600 1600 1607 1607 1607 1607 1607 1607 1607 1607 1607 1615 1615 1615 1615 1615 1615 1615 1615 1615 1615 1615 1622 1615 1622 1622 1615 1615 1615 1615 1615 1615 1615 1615 1615 1615 1622 1622 1622 1622 1630 1630 1630 1630 1630 1630 1630 1638 1638 1638 1638 1638 1638 1638 1638 1638 1638 1645 1645 1645 1645 1645 1645 1645 1645 1645 1645 1645 1645 1645 1645 1645 1645 1645 1645 1653 1653 1653 1653 1653 1661 1661 1661 1661 1661 1661 1661 1661 1661 1661 1653 1653 1653 1653 1661 1661 1661 1669 1669 1669 1669 1669 1669 1669 1669 1669 1677 1677 1677 1677 1677 1677 1677 1677 1677 1677 1677 1677 1677 1677 1677 1677 1677 1686 1686 1686 1686 1686 1686 1686 1686 1686 1686 1686 1686 1686 1686 1686 1686 1694 1694 1694 1694 1702 1702 1702 1702 1702 1702 1702 1702 1702 1702 1702 1702 1702 1702 1702 1711 1711 1711 1711 1711 1711 1711 1711 1711 1711 1711 1711 1711 1711 1719 1719 1719 1719 1719 1728 1719 1728 1728 1728 1728 1728 1728 1728 1728 1728 1728 1736 1728 1728 1728 1736 1736 1736 1736 1736 1736 1745 1745 1745 1745 1745 1745 1745 1745 1745 1745 1745 1745 1745 1754 1745 1754 1754 1754 1754 1754 1754 1754 1754 1754 1754 1754 1754 1763 1763 1754 1754 1763 1763 1763 1763 1763 1763 1772 1772 1772 1772 1772 1772 1772 1772 1772 1772 1772 1772 1772 1772 1772 1772 1772 1772 1772 1772 1772 1772 1772 1772 1772 1772 1781 1781 1781 1781 1790 1790 1790 1790 1781 1781 1790 1790 1790 1790 1790 1781 1790 1790 1790 1790 1800 1790 1790 1790 1800 1790 1790 1800 1790 1800 1800 1800 1800 1800 1800 1800 1800 1800 1809 1809 1809 1809 1809 1809 1809 1809 1809 1819 1819 1819 1819 1819 1819 1819 1819 1819 1819 1819 1828 1828 1828 1828 1828 1828 1828 1828 1828 1828 1828 1828 1828 1828 1828 1828 1828 1828 1828 1838 1838 1838 1838 1848 1848 1848 1848 1848 1848 1848 1848 1848 1848 1848 1848 1858 1858 1858 1858 1858 1858 1858 0 0 0 0 0 0 0 0 0 0 0 0 0 0 0 0 0 0 0 0 0 0 0 0 0 0 0 0 0 0 0 0 0 0 0 0 0 0 0 0 0
    1549 1549 1549 1549 1549 1549 1549 1556 1552 1552 1556 1556 1556 1556 1556 1556 1556 1556 1563 1571 1571 1571 1563 1563 1563 1563 1563 1563 1563 1563 1563 1571 1571 1571 1571 1578 1578 1578 1578 1578 1578 1578 1578 1578 1578 1578 1578 1578 1578 1578 1578 1578 1578 1585 1585 1585 1585 1585 1585 1585 1585 1585 1592 1592 1592 1592 1592 1592 1585 1592 1592 1592 1592 1600 1600 1600 1600 1600 1600 1600 1600 1607 1607 1607 1607 1607 1607 1615 1615 1615 1615 1615 1615 1615 1615 1615 1615 1615 1615 1615 1615 1615 1622 1615 1615 1615 1615 1615 1615 1615 1615 1615 1615 1622 1622 1622 1622 1630 1630 1630 1630 1630 1630 1630 1638 1638 1638 1638 1638 1638 1638 1638 1638 1638 1638 1645 1645 1645 1645 1645 1645 1645 1645 1645 1645 1645 1645 1645 1645 1645 1645 1645 1645 1645 1653 1653 1653 1653 1653 1661 1661 1661 1661 1661 1661 1661 1661 1661 1661 1661 1661 1661 1669 1669 1669 1669 1669 1669 1669 1669 1669 1669 1669 1677 1677 1677 1677 1677 1677 1677 1677 1677 1677 1677 1677 1677 1677 1677 1677 1677 1677 1677 1677 1677 1686 1686 1686 1686 1686 1686 1686 1686 1686 1686 1686 1686 1694 1694 1694 1694 1694 1702 1702 1702 1702 1702 1702 1702 1702 1702 1702 1702 1702 1702 1702 1702 1711 1711 1711 1711 1711 1711 1711 1711 1711 1711 1711 1711 1711 1719 1719 1719 1719 1719 1719 1719 1719 1728 1728 1728 1728 1728 1728 1728 1728 1728 1728 1728 1736 1728 1736 1736 1736 1736 1736 1736 1736 1745 1745 1745 1745 1745 1745 1745 1745 1745 1745 1745 1745 1745 1745 1754 1754 1754 1754 1754 1763 1754 1745 1745 1763 1763 1754 1763 1763 1754 1754 1763 1763 1754 1763 1763 1763 1772 1772 1772 1772 1772 1772 1772 1772 1772 1772 1772 1772 1772 1772 1772 1772 1772 1772 1772 1772 1772 1772 1772 1772 1772 1772 1781 1781 1781 1781 1790 1781 1781 1781 1790 1781 1790 1790 1790 1790 1790 1790 1790 1790 1790 1790 1800 1790 1790 1800 1800 1790 1790 1800 1800 1790 1790 1790 1790 1800 1790 1800 1800 1800 1800 1809 1809 1809 1809 1809 1809 1809 1819 1819 1819 1819 1819 1819 1819 1819 1819 1819 1819 1819 1819 1819 1828 1828 1828 1828 1828 1838 1838 1828 1828 1828 1828 1828 1828 1828 1828 1828 1828 1828 1838 1838 1838 1848 1848 1848 1848 1848 1848 1848 1848 1848 1858 1858 1858 1858 1858 1858 1858 1858 1858 1858 0 0 0 0 0 0 0 0 0 0 0 0 0 0 0 0 0 0 0 0 0 0 0 0 0 0 0 0 0 0 0 0 0 0 0 0 0 0 0 0 0
    1549 1549 1549 1549 1549 1549 1556 1556 1556 1556 1556 1556 1556 1556 1556 1556 1556 1556 1556 1563 1571 1571 1571 1571 1571 1563 1563 1563 1563 1571 1571 1571 1571 1571 1571 1571 1578 1578 1578 1578 1578 1578 1578 1578 1578 1578 1578 1578 1578 1578 1578 1578 1578 1578 1585 1585 1585 1585 1585 1585 1585 1585 1585 1585 1585 1592 1592 1585 1585 1585 1592 1592 1592 1592 1600 1600 1600 1600 1600 1607 1607 1607 1607 1607 1607 1607 1607 1607 1607 1615 1615 1615 1615 1615 1615 1615 1615 1615 1615 1622 1615 1622 1622 1622 1622 1615 1615 1615 1615 1615 1615 1615 1615 1622 1622 1622 1622 1622 1630 1630 1630 1630 1630 1630 1638 1638 1638 1638 1638 1638 1638 1638 1638 1638 1638 1645 1645 1645 1645 1645 1645 1645 1645 1645 1645 1645 1645 1645 1645 1645 1645 1645 1645 1645 1653 1653 1653 1653 1653 1653 1661 1661 1661 1661 1661 1661 1661 1661 1661 1669 1661 1661 1669 1669 1669 1669 1669 1669 1669 1669 1669 1669 1677 1677 1677 1677 1677 1677 1677 1677 1669 1669 1669 1677 1677 1677 1677 1677 1677 1677 1677 1677 1677 1677 1686 1677 1686 1686 1686 1686 1686 1686 1686 1694 1686 1694 1694 1694 1694 1694 1694 1694 1694 1694 1694 1702 1702 1702 1702 1702 1702 1702 1702 1702 1702 1702 1711 1711 1711 1711 1711 1711 1711 1711 1711 1711 1711 1711 1711 1719 1719 1719 1719 1719 1719 1719 1728 1728 1728 1728 1728 1719 1728 1728 1719 1728 1728 1728 1736 1736 1736 1736 1736 1736 1736 1736 1736 1745 1745 1745 1745 1745 1745 1745 1745 1745 1745 1745 1745 1745 1745 1754 1754 1754 1763 1763 1763 1754 1745 1745 1763 1754 1754 1754 1763 1763 1763 1763 1763 1763 1763 1763 1763 1772 1772 1772 1772 1772 1772 1763 1763 1763 1763 1772 1772 1772 1772 1772 1772 1772 1772 1772 1772 1772 1772 1772 1772 1772 1772 1772 1781 1781 1781 1781 1781 1781 1781 1781 1781 1781 1790 1790 1790 1790 1790 1790 1790 1790 1790 1790 1790 1790 1790 1790 1790 1790 1790 1790 1790 1790 1790 1790 1790 1790 1800 1800 1800 1800 1809 1809 1809 1809 1809 1809 1809 1809 1819 1819 1819 1819 1819 1819 1819 1819 1819 1819 1819 1819 1819 1819 1828 1828 1828 1828 1828 1828 1828 1828 1828 1828 1828 1828 1828 1828 1828 1828 1828 1838 1838 1838 1848 1848 1848 1848 1848 1848 1848 1848 1858 1858 1858 1858 1858 1858 1858 1858 1858 1858 1858 0 0 0 0 0 0 0 0 0 0 0 0 0 0 0 0 0 0 0 0 0 0 0 0 0 0 0 0 0 0 0 0 0 0 0 0 0 0 0 0 0
    1549 1549 1549 1549 1549 1549 1549 1556 1556 1556 1556 1556 1556 1556 1556 1556 1556 1563 1563 1563 1571 1563 1563 1563 1563 1563 1563 1563 1563 1563 1563 1571 1571 1571 1571 1571 1571 1578 1578 1578 1578 1578 1578 1578 1578 1578 1578 1578 1578 1578 1578 1578 1578 1585 1585 1585 1585 1585 1585 1585 1585 1585 1585 1585 1585 1592 1592 1592 1592 1592 1592 1592 1592 1600 1600 1600 1600 1600 1607 1607 1607 1607 1607 1607 1607 1607 1607 1607 1607 1607 1607 1615 1615 1615 1615 1615 1615 1615 1615 1615 1615 1622 1622 1615 1615 1615 1615 1615 1615 1615 1615 1615 1615 1622 1622 1622 1622 1630 1630 1630 1630 1630 1630 1630 1638 1638 1638 1638 1638 1638 1638 1638 1638 1638 1638 1645 1645 1645 1645 1645 1645 1645 1645 1645 1645 1645 1645 1645 1645 1645 1645 1645 1645 1645 1645 1645 1653 1653 1653 1653 1661 1661 1661 1661 1661 1661 1661 1661 1661 1669 1661 1669 1669 1669 1669 1669 1669 1669 1669 1669 1669 1669 1669 1677 1669 1677 1669 1677 1669 1669 1669 1669 1669 1677 1677 1677 1677 1677 1677 1677 1677 1677 1677 1677 1677 1686 1686 1686 1694 1694 1686 1686 1686 1694 1686 1694 1694 1694 1702 1702 1694 1702 1702 1702 1702 1702 1702 1702 1702 1702 1702 1702 1702 1702 1702 1702 1711 1711 1711 1711 1711 1711 1711 1711 1711 1711 1711 1711 1711 1711 1719 1719 1719 1719 1719 1719 1728 1728 1728 1719 1719 1719 1719 1719 1719 1728 1728 1728 1736 1736 1736 1736 1736 1736 1736 1736 1745 1745 1745 1745 1745 1745 1745 1745 1745 1745 1745 1745 1745 1745 1745 1754 1754 1754 1763 1763 1763 1754 1749 1745 1754 1754 1763 1763 1763 1763 1763 1763 1763 1763 1763 1763 1763 1772 1772 1772 1772 1772 1772 1772 1772 1763 1772 1772 1772 1772 1772 1772 1772 1772 1772 1772 1772 1772 1772 1772 1772 1772 1772 1772 1772 1781 1781 1781 1781 1781 1781 1781 1781 1790 1790 1790 1790 1790 1790 1790 1790 1790 1790 1790 1800 1800 1800 1800 1800 1800 1800 1790 1790 1790 1790 1790 1800 1800 1800 1800 1800 1800 1809 1809 1809 1809 1809 1809 1809 1819 1819 1819 1819 1819 1819 1819 1819 1819 1819 1819 1819 1819 1828 1828 1828 1828 1828 1828 1838 1828 1828 1828 1828 1828 1828 1828 1828 1828 1828 1828 1828 1838 1838 1848 1848 1848 1848 1848 1848 1848 1848 1858 1858 1858 1858 1858 1858 1858 1858 1858 1858 1858 1858 0 0 0 0 0 0 0 0 0 0 0 0 0 0 0 0 0 0 0 0 0 0 0 0 0 0 0 0 0 0 0 0 0 0 0 0 0 0 0 0 0
    1549 1549 1549 1549 1549 1549 1549 1549 1549 1556 1556 1556 1556 1556 1556 1556 1556 1556 1556 1563 1563 1563 1563 1563 1556 1563 1563 1563 1563 1563 1563 1571 1571 1571 1571 1571 1571 1578 1578 1578 1578 1578 1578 1578 1578 1578 1578 1578 1578 1585 1585 1585 1585 1585 1585 1585 1585 1585 1585 1585 1585 1585 1585 1585 1585 1585 1585 1585 1592 1592 1592 1592 1592 1600 1600 1600 1600 1607 1607 1607 1607 1607 1607 1607 1607 1607 1607 1607 1607 1607 1607 1607 1615 1615 1615 1615 1615 1615 1615 1615 1615 1615 1615 1615 1615 1615 1615 1622 1622 1622 1622 1622 1622 1622 1622 1622 1622 1630 1630 1630 1630 1630 1630 1630 1638 1638 1638 1638 1638 1638 1638 1638 1645 1638 1638 1645 1645 1645 1645 1645 1645 1645 1645 1645 1645 1645 1645 1645 1645 1645 1645 1645 1645 1645 1645 1653 1653 1653 1653 1653 1661 1653 1653 1661 1661 1661 1661 1661 1669 1669 1669 1669 1669 1669 1669 1669 1669 1669 1669 1669 1669 1669 1669 1669 1669 1669 1669 1677 1669 1669 1669 1677 1677 1677 1677 1677 1677 1677 1677 1677 1677 1677 1677 1677 1677 1677 1686 1686 1686 1686 1686 1686 1686 1694 1694 1694 1694 1694 1702 1702 1702 1702 1702 1702 1702 1702 1702 1702 1702 1702 1702 1702 1702 1702 1702 1702 1702 1702 1711 1711 1711 1711 1711 1711 1711 1719 1719 1711 1711 1719 1719 1719 1719 1719 1719 1719 1728 1728 1728 1728 1719 1719 1719 1728 1728 1728 1728 1728 1728 1736 1736 1736 1736 1736 1736 1736 1745 1745 1745 1745 1745 1745 1745 1745 1745 1745 1745 1745 1745 1745 1749 1754 1754 1754 1754 1754 1754 1754 1754 1749 1763 1763 1763 1772 1763 1763 1763 1772 1772 1763 1763 1772 1763 1772 1772 1772 1772 1772 1772 1772 1772 1772 1772 1772 1772 1772 1772 1772 1772 1781 1781 1781 1772 1772 1772 1772 1772 1772 1772 1772 1781 1781 1781 1781 1781 1781 1781 1781 1781 1781 1790 1790 1790 1790 1790 1790 1790 1790 1790 1790 1790 1800 1800 1800 1790 1790 1800 1790 1790 1790 1790 1790 1800 1800 1800 1800 1809 1800 1809 1809 1809 1809 1809 1809 1819 1819 1819 1819 1819 1819 1819 1819 1819 1819 1819 1819 1819 1819 1828 1828 1828 1828 1828 1828 1838 1838 1828 1828 1828 1828 1828 1828 1828 1828 1828 1828 1828 1838 1838 1848 1848 1848 1848 1848 1848 1848 1848 1848 1848 1848 1858 1858 1858 1858 1858 1858 1858 1858 1858 0 0 0 0 0 0 0 0 0 0 0 0 0 0 0 0 0 0 0 0 0 0 0 0 0 0 0 0 0 0 0 0 0 0 0 0 0 0 0 0 0
    1549 1549 1549 1549 1549 1549 1549 1549 1549 1556 1556 1556 1556 1556 1556 1556 1556 1556 1563 1563 1563 1571 1563 1563 1563 1563 1563 1563 1563 1563 1571 1571 1571 1571 1571 1571 1571 1578 1578 1578 1578 1578 1578 1578 1578 1578 1578 1578 1578 1578 1585 1585 1585 1585 1585 1585 1585 1585 1585 1585 1585 1585 1585 1585 1585 1592 1592 1592 1592 1592 1592 1592 1592 1592 1600 1600 1600 1600 1607 1607 1607 1607 1607 1607 1607 1607 1607 1607 1607 1615 1615 1615 1615 1615 1615 1615 1615 1615 1615 1615 1615 1615 1615 1615 1615 1615 1615 1622 1622 1622 1622 1622 1622 1622 1622 1622 1622 1622 1630 1630 1630 1630 1630 1630 1630 1630 1638 1638 1638 1638 1638 1638 1638 1638 1638 1638 1645 1645 1645 1645 1645 1645 1645 1645 1645 1645 1645 1645 1645 1645 1645 1645 1645 1645 1645 1645 1653 1653 1653 1653 1653 1653 1653 1653 1653 1653 1661 1661 1669 1669 1669 1669 1669 1661 1669 1669 1669 1669 1669 1669 1669 1669 1669 1669 1669 1669 1669 1669 1669 1677 1677 1677 1677 1677 1677 1677 1677 1677 1677 1677 1677 1677 1677 1677 1677 1677 1686 1686 1686 1686 1686 1686 1686 1686 1686 1694 1694 1702 1702 1702 1702 1702 1702 1702 1702 1702 1702 1702 1702 1702 1702 1702 1702 1702 1702 1702 1702 1702 1711 1711 1711 1711 1711 1711 1711 1711 1711 1711 1711 1719 1719 1719 1719 1719 1719 1719 1728 1728 1728 1719 1719 1719 1719 1719 1728 1728 1728 1736 1736 1736 1736 1736 1736 1736 1736 1736 1745 1745 1745 1745 1745 1745 1745 1745 1745 1745 1745 1745 1745 1745 1754 1754 1754 1754 1754 1754 1754 1745 1745 1754 1754 1754 1763 1763 1763 1763 1763 1772 1772 1772 1772 1772 1772 1772 1772 1772 1772 1772 1772 1772 1772 1772 1772 1772 1772 1772 1772 1772 1772 1781 1781 1781 1772 1781 1781 1781 1772 1772 1772 1781 1781 1781 1781 1781 1781 1781 1781 1781 1781 1781 1790 1790 1790 1790 1790 1790 1790 1790 1790 1790 1790 1800 1800 1800 1800 1800 1800 1790 1800 1800 1800 1800 1800 1800 1800 1800 1800 1800 1809 1809 1809 1809 1809 1809 1809 1819 1819 1819 1819 1819 1819 1819 1819 1819 1819 1819 1819 1819 1828 1828 1828 1828 1828 1828 1838 1828 1828 1828 1828 1828 1828 1828 1819 1819 1828 1828 1828 1838 1838 1838 1848 1848 1848 1848 1848 1848 1858 1858 1858 1858 1858 1858 1858 1858 1858 1858 1858 1858 1858 0 0 0 0 0 0 0 0 0 0 0 0 0 0 0 0 0 0 0 0 0 0 0 0 0 0 0 0 0 0 0 0 0 0 0 0 0 0 0 0 0
    1549 1549 1542 1542 1542 1549 1549 1549 1549 1549 1556 1556 1556 1556 1556 1556 1556 1563 1563 1563 1563 1571 1563 1563 1556 1556 1556 1563 1563 1563 1571 1571 1571 1571 1571 1571 1571 1578 1571 1578 1578 1578 1578 1578 1578 1578 1578 1578 1578 1585 1585 1585 1585 1585 1585 1585 1585 1585 1585 1585 1585 1585 1585 1585 1585 1585 1592 1592 1592 1592 1592 1592 1592 1592 1600 1600 1600 1600 1607 1607 1607 1607 1607 1607 1607 1607 1607 1607 1615 1615 1615 1615 1615 1607 1607 1607 1615 1615 1615 1615 1615 1615 1615 1615 1615 1615 1615 1622 1622 1622 1622 1622 1622 1622 1622 1622 1622 1622 1630 1630 1630 1630 1630 1630 1638 1638 1638 1638 1638 1638 1638 1638 1638 1638 1638 1638 1638 1645 1645 1645 1645 1645 1645 1645 1645 1645 1645 1645 1645 1645 1645 1645 1645 1645 1645 1645 1653 1653 1653 1653 1653 1653 1653 1653 1653 1661 1661 1661 1661 1661 1661 1661 1669 1661 1661 1669 1669 1669 1669 1669 1669 1669 1669 1669 1669 1669 1669 1677 1677 1677 1677 1677 1677 1677 1677 1677 1677 1677 1677 1677 1677 1677 1677 1677 1677 1686 1686 1686 1686 1686 1686 1686 1686 1686 1686 1694 1694 1702 1702 1702 1702 1702 1702 1702 1702 1702 1702 1702 1702 1702 1702 1702 1702 1702 1702 1702 1702 1702 1711 1702 1711 1711 1711 1711 1711 1711 1711 1711 1711 1711 1711 1719 1719 1719 1719 1719 1719 1728 1728 1728 1719 1719 1728 1728 1728 1736 1728 1736 1736 1736 1736 1736 1736 1736 1736 1736 1736 1736 1745 1745 1745 1745 1745 1745 1745 1745 1745 1745 1745 1745 1745 1745 1754 1745 1754 1754 1754 1745 1745 1763 1763 1763 1763 1772 1763 1763 1772 1772 1772 1772 1772 1772 1772 1772 1772 1772 1772 1772 1772 1772 1772 1772 1772 1772 1772 1772 1772 1772 1772 1781 1781 1781 1772 1772 1781 1772 1772 1772 1772 1772 1781 1781 1781 1781 1781 1781 1781 1781 1790 1790 1790 1800 1800 1800 1790 1790 1790 1790 1790 1800 1800 1800 1800 1800 1800 1800 1800 1790 1790 1800 1800 1800 1800 1800 1800 1800 1800 1800 1809 1809 1809 1809 1809 1809 1819 1819 1819 1819 1819 1819 1819 1819 1819 1819 1819 1819 1819 1819 1819 1819 1819 1828 1828 1828 1828 1828 1828 1828 1828 1828 1828 1828 1828 1828 1828 1828 1828 1838 1838 1838 1848 1848 1848 1848 1848 1848 1848 1848 1858 1858 1858 1858 1858 1858 1858 1858 1858 1858 1858 0 0 0 0 0 0 0 0 0 0 0 0 0 0 0 0 0 0 0 0 0 0 0 0 0 0 0 0 0 0 0 0 0 0 0 0 0 0 0 0 0
    1542 1542 1542 1549 1549 1549 1549 1549 1552 1556 1556 1556 1556 1556 1556 1556 1556 1556 1556 1556 1556 1556 1556 1563 1556 1556 1556 1563 1563 1563 1571 1571 1571 1571 1571 1571 1571 1578 1578 1578 1578 1578 1578 1578 1578 1578 1578 1578 1578 1585 1585 1585 1585 1585 1585 1585 1585 1585 1585 1585 1585 1585 1585 1585 1585 1585 1592 1592 1592 1600 1600 1592 1592 1600 1600 1600 1600 1600 1607 1607 1607 1607 1607 1607 1607 1607 1607 1607 1607 1615 1607 1615 1607 1607 1607 1607 1615 1615 1615 1615 1615 1615 1615 1615 1615 1615 1615 1622 1622 1622 1622 1622 1622 1622 1615 1615 1615 1622 1622 1622 1622 1622 1630 1630 1630 1630 1630 1638 1638 1638 1638 1638 1638 1638 1638 1638 1645 1645 1645 1645 1645 1645 1645 1645 1645 1645 1645 1645 1645 1645 1645 1645 1645 1645 1645 1645 1653 1653 1653 1653 1653 1653 1653 1653 1653 1653 1653 1661 1661 1661 1661 1669 1669 1661 1669 1669 1669 1669 1669 1669 1669 1669 1669 1669 1669 1677 1677 1677 1677 1677 1677 1677 1677 1677 1677 1677 1677 1677 1677 1677 1677 1677 1677 1686 1686 1686 1686 1686 1686 1686 1686 1686 1686 1686 1686 1694 1694 1694 1694 1694 1702 1702 1702 1702 1702 1702 1702 1702 1702 1702 1702 1702 1702 1702 1702 1702 1711 1711 1711 1711 1711 1711 1711 1711 1711 1711 1711 1711 1711 1711 1711 1711 1711 1719 1719 1719 1719 1719 1719 1728 1719 1728 1728 1728 1728 1736 1728 1736 1736 1736 1736 1736 1736 1745 1745 1745 1745 1745 1745 1745 1745 1745 1745 1745 1745 1745 1745 1745 1745 1745 1745 1745 1745 1745 1754 1745 1754 1754 1754 1754 1754 1754 1763 1763 1763 1763 1763 1772 1772 1772 1772 1772 1772 1772 1772 1772 1772 1772 1772 1772 1772 1772 1772 1772 1772 1772 1772 1781 1772 1781 1781 1781 1781 1781 1781 1781 1781 1772 1772 1781 1781 1781 1781 1781 1781 1790 1790 1790 1790 1790 1790 1790 1790 1790 1790 1790 1790 1790 1790 1800 1790 1800 1800 1800 1800 1800 1800 1790 1790 1800 1800 1790 1800 1800 1800 1800 1800 1800 1809 1809 1809 1809 1809 1809 1819 1819 1819 1819 1819 1819 1819 1819 1819 1819 1819 1819 1819 1819 1828 1819 1819 1828 1828 1828 1828 1828 1828 1828 1828 1828 1838 1828 1828 1828 1828 1838 1838 1838 1838 1838 1848 1848 1848 1848 1848 1848 1848 1848 1848 1848 1858 1858 1858 1858 1858 1858 1858 1858 1848 0 0 0 0 0 0 0 0 0 0 0 0 0 0 0 0 0 0 0 0 0 0 0 0 0 0 0 0 0 0 0 0 0 0 0 0 0 0 0 0 0
    1549 1549 1549 1549 1549 1549 1549 1549 1556 1556 1556 1556 1556 1556 1556 1556 1556 1556 1556 1556 1556 1556 1556 1563 1563 1563 1563 1563 1571 1571 1571 1571 1571 1571 1571 1578 1571 1578 1578 1578 1578 1578 1578 1578 1578 1578 1578 1578 1578 1585 1585 1585 1585 1585 1585 1585 1585 1585 1585 1585 1585 1585 1585 1585 1585 1592 1592 1592 1600 1600 1600 1592 1592 1592 1592 1592 1600 1600 1607 1607 1607 1607 1607 1607 1607 1607 1607 1607 1607 1607 1607 1607 1607 1607 1607 1607 1615 1615 1615 1615 1615 1615 1615 1615 1615 1615 1615 1622 1622 1622 1622 1622 1622 1622 1615 1615 1615 1622 1622 1622 1630 1622 1630 1630 1630 1630 1630 1638 1638 1638 1638 1638 1638 1638 1638 1638 1645 1645 1645 1645 1645 1645 1645 1645 1645 1645 1645 1645 1645 1645 1645 1645 1645 1653 1653 1653 1653 1653 1653 1653 1653 1653 1653 1653 1653 1653 1653 1661 1661 1661 1661 1661 1661 1661 1661 1661 1669 1669 1669 1669 1677 1677 1669 1669 1669 1677 1677 1677 1677 1677 1677 1677 1677 1677 1677 1677 1677 1677 1677 1677 1677 1677 1686 1686 1677 1686 1686 1686 1686 1686 1686 1686 1694 1686 1686 1694 1694 1694 1694 1702 1702 1702 1702 1702 1702 1702 1702 1702 1702 1702 1702 1702 1702 1702 1702 1702 1702 1711 1711 1711 1711 1711 1711 1711 1711 1711 1711 1711 1711 1711 1711 1711 1711 1719 1719 1719 1719 1728 1728 1728 1728 1728 1728 1728 1728 1736 1736 1736 1736 1736 1736 1736 1736 1745 1745 1745 1745 1745 1745 1745 1736 1745 1736 1745 1745 1745 1745 1745 1745 1745 1745 1745 1745 1745 1745 1745 1745 1754 1754 1754 1754 1754 1763 1763 1763 1763 1763 1772 1772 1772 1772 1772 1772 1772 1772 1772 1772 1772 1772 1772 1772 1772 1772 1772 1772 1772 1772 1772 1772 1781 1781 1781 1781 1781 1781 1781 1781 1781 1772 1781 1781 1781 1781 1781 1781 1781 1790 1781 1781 1790 1790 1790 1790 1790 1790 1790 1790 1790 1790 1800 1800 1800 1800 1800 1800 1800 1800 1800 1800 1800 1800 1800 1800 1800 1800 1800 1800 1800 1809 1809 1809 1809 1809 1809 1819 1819 1819 1819 1819 1819 1819 1819 1819 1819 1819 1819 1819 1819 1819 1819 1819 1819 1819 1819 1828 1828 1828 1828 1828 1828 1838 1828 1838 1838 1838 1838 1838 1838 1848 1848 1848 1848 1848 1848 1848 1848 1848 1848 1848 1848 1848 1848 1848 1848 1848 1858 1858 1858 1858 0 0 0 0 0 0 0 0 0 0 0 0 0 0 0 0 0 0 0 0 0 0 0 0 0 0 0 0 0 0 0 0 0 0 0 0 0 0 0 0 0
    1549 1549 1549 1549 1549 1549 1549 1552 1556 1556 1556 1556 1556 1549 1556 1556 1556 1556 1556 1556 1556 1556 1556 1563 1563 1556 1563 1563 1563 1563 1571 1571 1571 1571 1571 1571 1578 1578 1578 1578 1578 1578 1578 1578 1578 1578 1578 1578 1578 1585 1585 1585 1585 1585 1585 1585 1585 1585 1585 1585 1585 1585 1585 1585 1585 1592 1592 1592 1600 1600 1600 1592 1592 1592 1600 1600 1600 1600 1607 1607 1607 1607 1607 1607 1607 1607 1615 1607 1607 1615 1615 1607 1607 1607 1607 1615 1615 1615 1615 1615 1615 1615 1615 1615 1615 1615 1622 1622 1622 1622 1622 1622 1622 1622 1622 1615 1615 1622 1622 1622 1622 1622 1630 1630 1630 1630 1630 1638 1638 1638 1638 1645 1638 1638 1638 1638 1645 1645 1645 1645 1645 1645 1645 1645 1645 1645 1645 1645 1645 1645 1645 1645 1645 1645 1645 1653 1653 1653 1653 1653 1653 1653 1653 1653 1653 1653 1653 1661 1661 1661 1661 1661 1661 1661 1661 1661 1661 1669 1669 1669 1669 1669 1669 1669 1669 1677 1677 1677 1677 1677 1677 1677 1677 1677 1677 1677 1677 1677 1677 1677 1677 1677 1677 1677 1677 1686 1686 1686 1686 1686 1686 1686 1694 1686 1686 1686 1694 1694 1694 1702 1702 1702 1702 1702 1702 1702 1702 1702 1702 1702 1702 1702 1702 1702 1702 1702 1711 1711 1711 1711 1711 1711 1711 1711 1711 1711 1711 1711 1711 1711 1711 1711 1719 1719 1719 1719 1719 1719 1728 1728 1728 1728 1728 1728 1728 1736 1736 1736 1736 1736 1736 1736 1745 1745 1745 1745 1745 1745 1745 1745 1745 1745 1745 1745 1745 1745 1745 1745 1745 1745 1745 1745 1745 1745 1745 1745 1749 1754 1754 1754 1754 1763 1763 1763 1763 1763 1763 1763 1772 1772 1772 1772 1772 1772 1772 1772 1772 1772 1772 1772 1772 1772 1772 1772 1772 1772 1772 1772 1772 1781 1781 1781 1781 1781 1781 1781 1781 1781 1781 1781 1781 1781 1781 1781 1781 1781 1781 1781 1781 1790 1790 1781 1790 1790 1790 1790 1790 1800 1800 1800 1800 1800 1800 1800 1800 1800 1800 1800 1800 1800 1809 1800 1809 1809 1809 1809 1809 1809 1809 1809 1809 1809 1819 1819 1819 1819 1819 1819 1819 1819 1819 1819 1819 1819 1819 1819 1819 1819 1819 1819 1819 1819 1819 1819 1819 1819 1819 1819 1819 1828 1828 1828 1828 1828 1838 1838 1838 1838 1838 1848 1848 1848 1848 1848 1848 1848 1848 1848 1848 1848 1848 1848 1848 1848 1848 1858 1858 1858 1858 0 0 0 0 0 0 0 0 0 0 0 0 0 0 0 0 0 0 0 0 0 0 0 0 0 0 0 0 0 0 0 0 0 0 0 0 0 0 0 0 0
    1549 1549 1549 1549 1549 1549 1549 1556 1556 1556 1556 1556 1556 1549 1549 1556 1556 1556 1556 1556 1556 1556 1556 1556 1563 1563 1563 1563 1563 1563 1571 1571 1571 1571 1571 1571 1578 1578 1578 1578 1578 1578 1578 1578 1578 1578 1578 1585 1578 1585 1585 1585 1585 1585 1585 1585 1585 1585 1585 1585 1585 1585 1585 1585 1585 1592 1585 1592 1592 1592 1592 1592 1592 1592 1592 1600 1600 1600 1607 1607 1607 1607 1607 1607 1607 1607 1607 1607 1607 1615 1615 1607 1607 1607 1607 1615 1615 1615 1615 1615 1615 1615 1615 1615 1615 1615 1615 1622 1622 1622 1622 1622 1622 1622 1622 1622 1622 1630 1622 1630 1630 1630 1630 1630 1630 1630 1630 1638 1638 1638 1638 1645 1638 1638 1638 1638 1645 1645 1645 1645 1645 1645 1645 1645 1645 1645 1645 1645 1645 1645 1645 1645 1645 1653 1653 1653 1653 1653 1653 1653 1653 1653 1653 1653 1653 1661 1653 1661 1661 1661 1661 1661 1661 1661 1661 1661 1661 1661 1669 1669 1669 1669 1669 1669 1669 1677 1677 1677 1677 1677 1677 1677 1677 1677 1677 1677 1677 1677 1677 1677 1677 1677 1677 1686 1677 1677 1677 1686 1677 1686 1686 1686 1686 1686 1686 1686 1694 1694 1694 1694 1702 1702 1702 1702 1702 1702 1702 1702 1702 1702 1702 1702 1702 1702 1702 1702 1702 1702 1711 1711 1711 1711 1711 1711 1711 1711 1711 1711 1711 1711 1711 1711 1719 1719 1719 1728 1728 1728 1728 1736 1728 1736 1736 1736 1736 1736 1736 1736 1736 1736 1736 1736 1736 1745 1745 1745 1745 1736 1745 1736 1736 1745 1745 1745 1745 1745 1745 1745 1745 1745 1745 1745 1745 1745 1749 1749 1754 1754 1754 1754 1763 1763 1763 1763 1763 1763 1763 1763 1763 1772 1772 1772 1772 1772 1772 1772 1772 1772 1772 1772 1772 1772 1772 1772 1772 1772 1772 1772 1772 1781 1781 1781 1781 1781 1781 1781 1781 1781 1781 1781 1781 1781 1781 1781 1781 1781 1781 1781 1781 1790 1790 1781 1790 1790 1790 1790 1790 1800 1800 1800 1800 1800 1800 1800 1800 1800 1800 1800 1800 1800 1800 1800 1800 1800 1809 1809 1809 1809 1809 1809 1809 1809 1819 1819 1819 1819 1819 1819 1819 1819 1819 1819 1819 1819 1819 1819 1819 1819 1819 1819 1819 1819 1819 1819 1819 1819 1819 1819 1819 1819 1828 1828 1828 1838 1838 1838 1838 1838 1848 1848 1848 1848 1848 1848 1848 1848 1848 1848 1848 1848 1848 1848 1848 1848 1848 1858 1858 1858 1858 0 0 0 0 0 0 0 0 0 0 0 0 0 0 0 0 0 0 0 0 0 0 0 0 0 0 0 0 0 0 0 0 0 0 0 0 0 0 0 0 0
    1549 1549 1549 1549 1549 1549 1549 1556 1556 1556 1556 1556 1556 1552 1552 1556 1556 1556 1556 1556 1556 1556 1563 1563 1563 1563 1571 1563 1571 1571 1571 1571 1571 1571 1571 1571 1571 1578 1578 1578 1578 1578 1585 1585 1585 1585 1585 1585 1585 1585 1585 1585 1585 1585 1585 1585 1585 1585 1585 1585 1585 1585 1585 1585 1592 1592 1592 1592 1592 1592 1592 1592 1592 1592 1592 1600 1600 1600 1607 1607 1607 1607 1607 1607 1607 1607 1607 1607 1607 1615 1615 1607 1607 1607 1607 1615 1615 1615 1615 1615 1615 1615 1615 1615 1615 1615 1615 1615 1622 1615 1622 1622 1622 1622 1622 1622 1622 1630 1622 1630 1630 1630 1630 1630 1630 1630 1630 1638 1638 1638 1638 1638 1638 1638 1638 1638 1645 1645 1645 1645 1645 1645 1645 1645 1645 1645 1645 1645 1645 1645 1645 1645 1653 1653 1645 1645 1645 1645 1653 1653 1653 1653 1653 1661 1661 1661 1661 1661 1661 1661 1661 1661 1661 1661 1661 1661 1661 1661 1669 1669 1669 1669 1669 1669 1669 1677 1677 1677 1677 1677 1677 1677 1677 1677 1677 1677 1677 1677 1677 1677 1677 1677 1677 1677 1677 1677 1677 1677 1677 1686 1686 1686 1694 1686 1686 1686 1694 1694 1694 1694 1694 1702 1702 1702 1702 1702 1702 1702 1702 1702 1702 1702 1702 1702 1702 1702 1702 1702 1711 1711 1711 1711 1711 1711 1711 1711 1711 1711 1711 1711 1711 1711 1719 1719 1728 1728 1728 1728 1728 1728 1728 1728 1728 1736 1736 1736 1736 1736 1736 1736 1736 1736 1736 1745 1745 1745 1736 1745 1745 1736 1736 1736 1736 1736 1736 1736 1736 1736 1736 1745 1745 1745 1745 1745 1754 1754 1754 1754 1754 1754 1754 1754 1763 1763 1763 1763 1763 1763 1772 1772 1772 1772 1772 1772 1772 1772 1772 1772 1772 1772 1772 1772 1772 1772 1772 1772 1772 1772 1772 1772 1772 1781 1781 1781 1781 1781 1781 1781 1781 1781 1781 1781 1781 1781 1781 1781 1781 1781 1781 1781 1781 1781 1781 1781 1790 1790 1790 1790 1800 1800 1800 1800 1790 1800 1800 1800 1800 1800 1800 1800 1800 1800 1800 1809 1809 1809 1809 1809 1809 1809 1809 1809 1819 1809 1819 1819 1819 1819 1819 1819 1819 1819 1819 1819 1819 1819 1819 1819 1819 1819 1819 1819 1819 1819 1819 1819 1819 1819 1819 1828 1828 1828 1828 1838 1838 1838 1838 1838 1848 1848 1848 1848 1848 1848 1848 1848 1848 1848 1848 1848 1848 1848 1848 1858 1858 1858 1858 1858 1858 0 0 0 0 0 0 0 0 0 0 0 0 0 0 0 0 0 0 0 0 0 0 0 0 0 0 0 0 0 0 0 0 0 0 0 0 0 0 0 0 0
    1549 1549 1549 1549 1549 1549 1549 1556 1556 1556 1556 1556 1556 1556 1556 1556 1556 1556 1556 1556 1563 1563 1563 1563 1571 1571 1571 1571 1571 1571 1571 1571 1571 1578 1571 1578 1578 1578 1578 1578 1578 1578 1585 1585 1585 1585 1585 1585 1585 1585 1585 1585 1585 1585 1585 1585 1585 1585 1585 1585 1585 1585 1585 1592 1592 1592 1592 1600 1600 1600 1592 1592 1592 1592 1592 1600 1600 1600 1600 1600 1607 1607 1607 1607 1607 1607 1607 1615 1615 1615 1615 1615 1607 1607 1615 1615 1615 1615 1615 1615 1615 1615 1615 1615 1615 1615 1615 1615 1615 1615 1615 1622 1622 1622 1622 1622 1622 1630 1630 1630 1630 1630 1630 1630 1630 1630 1630 1638 1638 1638 1638 1638 1638 1638 1638 1638 1645 1645 1645 1645 1645 1645 1645 1645 1645 1645 1645 1645 1645 1645 1645 1645 1645 1653 1645 1645 1645 1645 1645 1645 1653 1653 1653 1653 1653 1661 1653 1661 1661 1661 1661 1661 1653 1661 1653 1661 1661 1661 1669 1669 1669 1669 1669 1669 1669 1669 1677 1677 1677 1677 1677 1677 1677 1677 1677 1677 1677 1677 1677 1677 1677 1677 1677 1677 1677 1677 1677 1686 1686 1686 1686 1686 1694 1694 1686 1694 1694 1694 1694 1694 1694 1702 1702 1702 1702 1702 1702 1702 1702 1702 1702 1702 1702 1702 1702 1702 1702 1711 1711 1711 1711 1711 1711 1711 1711 1711 1711 1711 1711 1711 1711 1711 1719 1719 1719 1728 1728 1728 1728 1728 1728 1728 1728 1728 1728 1736 1736 1736 1736 1736 1736 1736 1736 1736 1745 1745 1736 1736 1736 1736 1736 1736 1736 1736 1736 1736 1736 1736 1736 1745 1745 1745 1745 1745 1754 1754 1754 1754 1754 1763 1763 1763 1763 1763 1763 1763 1763 1763 1772 1772 1772 1763 1763 1763 1763 1763 1763 1772 1772 1772 1772 1772 1772 1772 1772 1772 1772 1772 1772 1772 1781 1781 1781 1781 1781 1781 1781 1781 1781 1781 1781 1781 1781 1781 1781 1781 1781 1781 1790 1781 1781 1781 1781 1790 1790 1790 1790 1790 1800 1790 1800 1790 1790 1800 1800 1790 1800 1800 1800 1800 1800 1800 1800 1809 1809 1809 1809 1809 1809 1809 1809 1809 1819 1809 1819 1819 1819 1819 1819 1819 1819 1819 1819 1819 1819 1819 1819 1819 1819 1819 1819 1819 1819 1819 1819 1819 1819 1819 1819 1828 1828 1828 1828 1838 1838 1838 1838 1838 1838 1838 1848 1838 1848 1838 1848 1848 1848 1848 1848 1848 1848 1848 1858 1858 1858 1858 1858 1858 1858 0 0 0 0 0 0 0 0 0 0 0 0 0 0 0 0 0 0 0 0 0 0 0 0 0 0 0 0 0 0 0 0 0 0 0 0 0 0 0 0 0</data></depth>
</opencv_storage>
