<?xml version="1.0"?>
<opencv_storage>
<depth type_id="opencv-matrix">
  <rows>41</rows>
  <cols>480</cols>
  <dt>w</dt>
  <data>
    1615 1615 1615 1622 1622 1622 1630 1638 1638 1638 1638 1638 1645 1645 1645 1645 1645 1645 1645 1653 1653 1653 1653 1653 1653 1653 1661 1661 1669 1669 1669 1677 1677 1669 1677 1677 1677 1677 1686 1686 1694 1694 1694 1702 1702 1702 1711 1711 1711 1711 1711 1719 1719 1719 1719 1719 1728 1728 1736 1736 1736 1736 1736 1745 1745 1745 1745 1754 1754 1754 1754 1754 1763 1772 1772 1781 1781 1781 1781 1781 1781 1781 1781 1781 1790 1790 1790 1790 1790 1800 1800 1809 1809 1819 1819 1819 1819 1819 1819 1819 1819 1819 1828 1828 1828 1828 1828 1838 1838 1838 1848 1848 1848 1858 1858 1858 1868 1868 1868 1868 1868 1878 1878 1878 1888 1888 1888 1899 1899 1899 1899 1909 1909 1920 1920 1931 1931 1931 1941 1941 1941 1941 1941 1941 1941 1952 1952 1952 1952 1952 1952 1952 1964 1964 1952 1964 1975 1975 1975 1975 1986 1986 1986 1975 1986 1986 1998 1998 1998 1998 1998 2009 2009 2021 2021 2021 2021 2021 2033 2033 2033 2045 2045 2045 2045 2057 2057 2057 2069 2057 2069 2082 2082 2095 2082 2095 2095 2095 2107 2107 2107 2107 2120 2107 2120 2120 2120 2120 2120 2133 2133 2133 2147 2147 2147 2147 2147 2147 2147 2160 2160 2174 2174 2187 2187 2187 2201 2201 2201 2201 2201 2201 2201 2215 2215 2215 2230 2230 2230 2230 2230 2244 2244 2244 2244 2244 2259 2259 2259 2274 2274 2289 2289 2289 2289 2304 2304 2304 2304 2304 2304 2320 2320 2320 2320 2335 2335 2351 2351 2351 2367 2367 2367 2367 2367 2367 2351 2335 2335 2335 2335 2320 2320 2320 2320 2320 2320 2304 2304 2304 2289 2274 2274 2274 2274 2259 2259 2259 2244 2244 2230 2230 2230 2230 2215 2201 2201 2201 2187 2187 2187 2187 2187 2174 2174 2174 2160 2160 2147 2147 2147 2147 2133 2133 2133 2133 2133 2120 2120 2120 2107 2107 2095 2095 2095 2082 2082 2082 2069 2069 2069 2057 2057 2057 2045 2045 2045 2045 2033 2045 2033 2033 2033 2021 2021 2009 2009 1998 1998 1998 1998 1998 1986 1986 1975 1964 1964 1952 1952 1952 1952 1952 1952 1941 1952 1952 1931 1920 1920 1909 1909 1909 1909 1909 1899 1899 1899 1888 1888 1888 1888 1878 1878 1878 1878 1868 1878 1868 1868 1868 1848 1848 1848 1848 1848 1848 1838 1838 1828 1828 1828 1819 1819 1819 1819 1809 1809 1800 1800 1800 1800 1800 1800 1790 1790 1781 1781 1772 1772 1772 1763 1763 1763 1763 1763 1763 1763 1763 1754 1754 1754 0 0 0 0 0 0 0 0 0 0 0 0 0 0 0 0 0 0 0 0 0 0 0 0 0 0 0 0 0 0 0 0 0 0 0 0 0 0 0
    1615 1615 1615 1622 1622 1622 1630 1638 1638 1638 1630 1638 1638 1638 1638 1638 1645 1645 1645 1653 1645 1653 1653 1653 1653 1653 1653 1653 1669 1669 1677 1677 1677 1677 1677 1677 1677 1677 1677 1686 1686 1686 1686 1694 1694 1702 1702 1702 1711 1711 1711 1719 1719 1719 1719 1728 1728 1728 1728 1728 1736 1728 1736 1736 1745 1745 1745 1745 1754 1754 1754 1754 1763 1763 1772 1772 1781 1781 1781 1781 1781 1781 1781 1781 1781 1790 1790 1790 1790 1800 1809 1809 1809 1819 1819 1819 1819 1819 1819 1819 1819 1819 1828 1828 1828 1828 1828 1838 1838 1848 1848 1848 1858 1858 1858 1858 1858 1868 1868 1868 1868 1878 1878 1878 1888 1888 1888 1899 1899 1899 1909 1909 1909 1920 1931 1931 1931 1931 1931 1931 1931 1941 1931 1941 1941 1941 1952 1952 1952 1952 1952 1952 1952 1964 1964 1975 1975 1975 1975 1986 1986 1986 1986 1986 1986 1986 1998 1998 1998 1998 1998 2009 2009 2009 2021 2021 2021 2033 2033 2033 2033 2045 2045 2045 2045 2045 2045 2057 2057 2069 2082 2082 2082 2082 2095 2095 2095 2095 2095 2095 2095 2107 2107 2107 2107 2107 2120 2107 2120 2120 2133 2133 2147 2147 2147 2147 2147 2147 2147 2147 2160 2160 2174 2174 2187 2187 2201 2201 2201 2201 2201 2201 2201 2201 2215 2215 2215 2230 2230 2230 2230 2230 2244 2244 2244 2244 2259 2259 2259 2274 2274 2289 2289 2304 2304 2304 2304 2304 2304 2304 2304 2320 2320 2320 2335 2335 2351 2351 2351 2351 2367 2367 2367 2367 2367 2367 2367 2351 2335 2335 2335 2320 2320 2320 2320 2320 2304 2304 2304 2304 2289 2274 2274 2274 2259 2259 2259 2244 2244 2244 2244 2230 2230 2230 2215 2215 2201 2187 2187 2187 2187 2187 2174 2174 2174 2160 2160 2147 2147 2147 2147 2147 2133 2133 2133 2133 2120 2120 2120 2120 2107 2107 2095 2095 2082 2082 2082 2082 2082 2069 2069 2057 2057 2057 2045 2033 2033 2045 2033 2033 2033 2033 2033 2021 2021 2009 2009 1998 1998 1998 1998 1998 1986 1986 1975 1964 1964 1952 1952 1952 1952 1952 1952 1952 1952 1952 1952 1920 1920 1909 1909 1909 1899 1899 1899 1899 1899 1899 1899 1888 1888 1888 1878 1878 1878 1868 1868 1868 1868 1858 1848 1848 1838 1838 1838 1838 1838 1838 1828 1828 1828 1819 1819 1819 1819 1809 1809 1809 1800 1800 1800 1800 1790 1790 1790 1781 1781 1772 1772 1772 1772 1772 1772 1772 1763 1763 1763 1763 1754 1754 1754 0 0 0 0 0 0 0 0 0 0 0 0 0 0 0 0 0 0 0 0 0 0 0 0 0 0 0 0 0 0 0 0 0 0 0 0 0 0 0
    1615 1615 1622 1622 1622 1622 1630 1638 1638 1630 1630 1630 1638 1638 1638 1638 1645 1645 1645 1653 1653 1653 1653 1653 1653 1661 1653 1661 1669 1669 1669 1677 1677 1677 1677 1677 1677 1677 1677 1686 1686 1686 1686 1694 1694 1694 1702 1711 1711 1711 1711 1719 1719 1719 1719 1719 1728 1728 1728 1728 1736 1736 1736 1745 1745 1745 1745 1745 1754 1754 1754 1754 1763 1763 1763 1772 1772 1781 1781 1781 1781 1781 1781 1790 1790 1790 1790 1790 1800 1809 1809 1809 1809 1819 1819 1819 1819 1819 1819 1819 1819 1828 1828 1828 1828 1828 1838 1838 1848 1848 1848 1848 1858 1858 1858 1858 1858 1858 1868 1868 1868 1878 1878 1878 1878 1888 1888 1899 1899 1899 1899 1899 1909 1909 1920 1931 1931 1931 1931 1941 1941 1941 1931 1941 1941 1941 1952 1952 1952 1952 1952 1952 1952 1952 1952 1964 1975 1975 1975 1986 1986 1986 1986 1986 1986 1986 1998 1998 1998 1998 1998 2009 2009 2009 2021 2021 2021 2033 2033 2033 2045 2045 2045 2045 2045 2045 2057 2057 2069 2069 2069 2082 2082 2082 2082 2095 2095 2095 2095 2095 2095 2095 2107 2107 2107 2120 2120 2120 2120 2133 2133 2133 2147 2147 2147 2147 2147 2147 2147 2160 2160 2160 2174 2174 2187 2187 2201 2201 2201 2201 2187 2201 2201 2201 2201 2201 2215 2230 2230 2230 2230 2244 2244 2244 2244 2259 2259 2259 2259 2274 2289 2289 2289 2304 2304 2304 2304 2304 2304 2304 2304 2320 2320 2320 2320 2335 2351 2351 2351 2367 2367 2367 2367 2367 2367 2367 2367 2351 2335 2335 2335 2320 2320 2320 2320 2320 2304 2304 2304 2289 2289 2274 2274 2274 2259 2259 2259 2244 2244 2244 2230 2230 2230 2230 2215 2215 2201 2201 2187 2187 2187 2187 2174 2174 2174 2174 2160 2147 2147 2147 2147 2147 2133 2133 2133 2120 2120 2120 2120 2107 2107 2095 2095 2095 2082 2082 2082 2082 2082 2069 2069 2057 2057 2057 2045 2033 2045 2045 2033 2045 2033 2033 2033 2021 2021 1998 1998 1998 1998 1998 1986 1986 1986 1986 1975 1975 1964 1964 1952 1952 1952 1952 1952 1952 1952 1952 1931 1920 1920 1909 1909 1909 1909 1909 1899 1899 1899 1888 1899 1888 1888 1888 1878 1878 1878 1868 1878 1878 1868 1868 1858 1848 1838 1838 1838 1838 1828 1828 1828 1828 1819 1819 1819 1819 1819 1809 1809 1809 1800 1800 1800 1800 1790 1790 1781 1781 1781 1772 1772 1772 1763 1772 1763 1763 1763 1763 1763 1763 1754 1754 1754 0 0 0 0 0 0 0 0 0 0 0 0 0 0 0 0 0 0 0 0 0 0 0 0 0 0 0 0 0 0 0 0 0 0 0 0 0 0 0
    1615 1615 1622 1622 1622 1622 1630 1638 1638 1630 1630 1638 1638 1638 1638 1638 1645 1645 1645 1645 1653 1653 1653 1653 1653 1653 1653 1653 1669 1669 1669 1677 1677 1677 1677 1677 1677 1677 1686 1686 1686 1686 1686 1686 1694 1694 1702 1711 1711 1711 1719 1719 1719 1719 1719 1728 1728 1736 1736 1745 1745 1745 1745 1745 1745 1745 1745 1745 1754 1754 1754 1754 1754 1763 1754 1763 1772 1772 1781 1781 1790 1790 1790 1790 1790 1790 1790 1790 1790 1800 1800 1809 1809 1819 1819 1819 1819 1819 1819 1819 1819 1828 1828 1828 1828 1828 1838 1838 1848 1848 1858 1858 1858 1858 1858 1858 1858 1858 1868 1868 1868 1878 1878 1878 1888 1888 1888 1899 1899 1899 1909 1909 1909 1920 1931 1931 1931 1931 1931 1931 1931 1931 1931 1941 1941 1952 1952 1952 1952 1952 1952 1952 1952 1952 1952 1975 1975 1975 1975 1986 1986 1986 1986 1986 1986 1986 1998 1998 1998 1998 1998 1998 2009 2009 2009 2021 2021 2033 2033 2033 2045 2045 2045 2045 2045 2045 2045 2057 2069 2069 2082 2082 2082 2095 2082 2082 2082 2095 2082 2095 2095 2095 2107 2107 2107 2120 2120 2120 2133 2133 2133 2133 2133 2147 2147 2147 2147 2160 2160 2160 2160 2174 2187 2187 2187 2187 2201 2201 2201 2201 2187 2201 2201 2201 2201 2201 2215 2215 2215 2230 2230 2244 2244 2244 2244 2259 2259 2259 2259 2274 2274 2289 2289 2289 2289 2289 2289 2304 2304 2304 2304 2304 2320 2320 2320 2320 2335 2335 2351 2351 2367 2367 2367 2367 2367 2367 2367 2351 2351 2335 2335 2320 2320 2320 2320 2320 2304 2304 2304 2289 2289 2274 2274 2259 2259 2259 2244 2244 2244 2244 2230 2230 2230 2215 2215 2215 2201 2187 2187 2187 2187 2187 2174 2174 2174 2174 2160 2147 2147 2147 2147 2133 2133 2133 2133 2120 2120 2120 2120 2107 2107 2095 2095 2082 2082 2082 2082 2082 2069 2069 2069 2057 2057 2057 2045 2045 2045 2033 2033 2033 2021 2021 2021 2009 2009 1998 1998 1998 1986 1986 1986 1986 1986 1975 1975 1964 1964 1952 1952 1952 1952 1952 1952 1952 1952 1952 1941 1920 1920 1909 1909 1909 1909 1909 1899 1899 1899 1899 1888 1888 1888 1888 1888 1878 1878 1868 1878 1878 1868 1858 1858 1858 1848 1838 1838 1838 1828 1828 1828 1828 1828 1819 1819 1819 1819 1809 1800 1809 1800 1800 1800 1800 1790 1790 1790 1781 1781 1772 1763 1772 1763 1763 1763 1763 1763 1763 1763 1763 1754 1754 1754 0 0 0 0 0 0 0 0 0 0 0 0 0 0 0 0 0 0 0 0 0 0 0 0 0 0 0 0 0 0 0 0 0 0 0 0 0 0 0
    1615 1615 1615 1622 1622 1622 1622 1630 1630 1622 1622 1630 1630 1630 1630 1638 1645 1645 1645 1653 1653 1653 1653 1653 1661 1661 1653 1669 1669 1669 1669 1677 1677 1677 1677 1677 1677 1677 1686 1686 1686 1686 1694 1694 1694 1702 1702 1711 1711 1711 1719 1719 1719 1719 1719 1728 1728 1736 1736 1736 1736 1745 1745 1745 1745 1745 1745 1749 1754 1754 1754 1763 1754 1763 1754 1772 1781 1781 1772 1781 1790 1790 1790 1790 1790 1790 1790 1790 1790 1800 1800 1809 1809 1819 1819 1819 1819 1819 1828 1819 1819 1828 1828 1828 1828 1828 1838 1838 1848 1848 1848 1858 1858 1858 1858 1858 1858 1868 1868 1868 1868 1868 1878 1878 1878 1878 1888 1899 1899 1899 1899 1909 1909 1909 1920 1920 1920 1920 1931 1931 1931 1931 1931 1941 1941 1941 1952 1952 1952 1952 1952 1952 1952 1952 1952 1964 1975 1975 1986 1986 1986 1986 1986 1986 1998 1998 1998 1998 2003 2003 2009 2009 2009 2021 2021 2033 2033 2033 2033 2045 2045 2045 2045 2045 2045 2045 2045 2057 2057 2057 2082 2082 2082 2095 2082 2095 2082 2095 2082 2095 2095 2095 2107 2107 2107 2120 2120 2120 2133 2133 2133 2133 2147 2147 2147 2147 2160 2160 2160 2160 2174 2187 2187 2187 2187 2201 2201 2201 2201 2201 2201 2201 2201 2201 2201 2201 2215 2215 2215 2215 2230 2230 2244 2244 2259 2259 2259 2259 2274 2274 2289 2289 2289 2289 2289 2289 2289 2289 2304 2304 2304 2304 2320 2320 2320 2335 2335 2335 2351 2351 2367 2367 2367 2367 2367 2367 2367 2351 2351 2351 2335 2335 2320 2320 2320 2320 2304 2304 2304 2289 2289 2274 2259 2259 2259 2259 2244 2244 2244 2244 2230 2230 2230 2215 2215 2201 2201 2187 2187 2187 2187 2187 2174 2174 2174 2174 2160 2147 2147 2147 2147 2133 2133 2133 2133 2120 2107 2120 2107 2107 2095 2095 2095 2095 2082 2082 2082 2069 2069 2069 2069 2057 2057 2057 2045 2045 2045 2045 2033 2033 2021 2021 2009 2009 2009 1998 1998 1998 1986 1986 1986 1986 1986 1975 1975 1964 1964 1952 1952 1952 1952 1952 1952 1941 1941 1941 1941 1920 1920 1909 1909 1909 1909 1909 1899 1888 1899 1899 1899 1888 1888 1888 1878 1878 1868 1868 1868 1868 1868 1858 1858 1858 1848 1838 1838 1838 1838 1838 1828 1828 1819 1819 1819 1819 1819 1809 1809 1809 1809 1809 1800 1800 1800 1800 1790 1790 1781 1781 1772 1772 1772 1763 1763 1763 1763 1763 1763 1754 1754 1754 1754 0 0 0 0 0 0 0 0 0 0 0 0 0 0 0 0 0 0 0 0 0 0 0 0 0 0 0 0 0 0 0 0 0 0 0 0 0 0 0
    1615 1615 1615 1615 1622 1622 1622 1622 1622 1622 1622 1630 1630 1630 1638 1638 1645 1645 1645 1653 1653 1653 1653 1653 1653 1653 1669 1669 1669 1669 1677 1677 1677 1677 1677 1677 1677 1686 1686 1686 1686 1686 1694 1694 1694 1702 1702 1702 1711 1711 1711 1719 1719 1719 1719 1719 1728 1728 1736 1736 1736 1736 1745 1745 1745 1745 1745 1754 1754 1754 1754 1754 1754 1763 1763 1772 1772 1781 1781 1781 1790 1790 1790 1790 1790 1790 1790 1800 1800 1809 1809 1809 1809 1819 1819 1819 1819 1819 1828 1828 1828 1828 1828 1828 1828 1838 1838 1838 1848 1848 1858 1858 1858 1858 1858 1858 1858 1858 1868 1868 1868 1868 1868 1868 1878 1888 1888 1888 1888 1899 1899 1909 1909 1909 1920 1920 1920 1920 1931 1931 1931 1931 1931 1941 1941 1952 1952 1952 1952 1952 1952 1952 1952 1952 1952 1975 1975 1986 1986 1986 1986 1998 1998 1986 1986 1986 1998 2003 2009 2009 2009 2009 2021 2021 2021 2033 2033 2033 2045 2045 2045 2057 2057 2057 2045 2045 2045 2045 2057 2057 2082 2082 2082 2082 2095 2095 2095 2095 2095 2095 2095 2107 2107 2107 2120 2120 2120 2133 2133 2133 2133 2133 2147 2147 2147 2160 2160 2160 2160 2174 2174 2187 2187 2187 2187 2201 2201 2215 2215 2201 2201 2201 2201 2201 2201 2201 2215 2215 2215 2215 2215 2230 2244 2244 2259 2259 2259 2259 2274 2274 2274 2289 2289 2289 2289 2289 2289 2289 2289 2304 2304 2304 2304 2320 2320 2335 2335 2335 2351 2351 2367 2367 2367 2367 2367 2367 2367 2351 2351 2351 2335 2335 2320 2320 2320 2320 2320 2304 2304 2289 2274 2274 2259 2259 2259 2259 2259 2259 2244 2244 2244 2244 2230 2215 2215 2201 2201 2201 2187 2187 2187 2187 2174 2174 2174 2174 2174 2160 2160 2147 2147 2147 2133 2133 2133 2120 2120 2120 2120 2107 2095 2095 2095 2095 2082 2082 2082 2069 2069 2069 2057 2057 2057 2045 2045 2045 2045 2045 2033 2033 2021 2021 2009 2009 2009 1998 1998 1998 1986 1986 1986 1986 1986 1975 1975 1975 1964 1952 1952 1952 1952 1952 1952 1941 1941 1941 1941 1931 1920 1920 1909 1909 1909 1909 1899 1899 1888 1899 1888 1888 1888 1888 1878 1868 1868 1868 1868 1868 1858 1858 1858 1858 1848 1838 1838 1838 1838 1838 1838 1828 1819 1819 1819 1819 1819 1809 1809 1809 1809 1809 1809 1800 1800 1800 1790 1790 1781 1781 1772 1772 1772 1763 1763 1763 1763 1763 1763 1754 1754 1754 1754 0 0 0 0 0 0 0 0 0 0 0 0 0 0 0 0 0 0 0 0 0 0 0 0 0 0 0 0 0 0 0 0 0 0 0 0 0 0 0
    1615 1607 1615 1615 1615 1622 1622 1622 1622 1622 1630 1630 1630 1630 1638 1638 1645 1645 1645 1653 1653 1653 1653 1653 1661 1661 1669 1669 1669 1669 1669 1677 1677 1677 1677 1677 1677 1677 1686 1686 1686 1686 1694 1694 1694 1694 1694 1702 1711 1711 1711 1711 1711 1719 1719 1719 1719 1728 1728 1728 1736 1745 1745 1745 1745 1745 1745 1745 1754 1754 1754 1763 1763 1763 1763 1772 1772 1772 1781 1781 1781 1781 1781 1790 1790 1790 1790 1800 1809 1809 1809 1809 1819 1819 1819 1819 1819 1819 1828 1828 1828 1828 1828 1828 1838 1838 1838 1838 1848 1848 1848 1858 1858 1858 1858 1858 1858 1858 1868 1868 1868 1868 1878 1878 1868 1888 1888 1899 1899 1899 1899 1909 1909 1920 1920 1920 1920 1920 1931 1931 1931 1931 1931 1941 1941 1941 1952 1952 1952 1952 1952 1952 1964 1964 1964 1975 1975 1986 1986 1986 1986 1986 1986 1986 1998 1998 2003 2009 2009 2009 2009 2009 2009 2021 2021 2033 2033 2033 2045 2045 2045 2045 2045 2045 2045 2045 2045 2045 2069 2069 2082 2082 2082 2082 2082 2082 2082 2095 2082 2095 2107 2107 2107 2120 2120 2120 2133 2133 2133 2147 2147 2147 2147 2147 2147 2160 2160 2160 2174 2174 2174 2187 2187 2187 2201 2201 2201 2201 2201 2201 2201 2201 2201 2201 2201 2201 2215 2215 2215 2215 2230 2230 2244 2244 2259 2259 2259 2259 2274 2274 2274 2289 2289 2289 2289 2289 2289 2304 2304 2304 2304 2320 2320 2320 2320 2335 2335 2335 2335 2351 2351 2367 2367 2367 2367 2367 2367 2351 2351 2351 2335 2335 2320 2320 2320 2320 2320 2304 2289 2274 2259 2259 2259 2259 2259 2259 2259 2259 2244 2244 2244 2230 2230 2215 2215 2201 2201 2201 2201 2201 2187 2187 2174 2174 2160 2160 2160 2147 2147 2147 2147 2133 2133 2133 2120 2120 2107 2107 2107 2107 2107 2095 2095 2095 2082 2082 2082 2069 2069 2069 2057 2057 2045 2045 2045 2045 2033 2033 2033 2033 2021 2021 2009 1998 1998 1998 1998 1986 1986 1986 1986 1975 1975 1975 1975 1964 1964 1964 1952 1952 1952 1952 1941 1941 1941 1931 1941 1931 1920 1920 1909 1909 1909 1899 1899 1899 1899 1899 1899 1888 1888 1888 1878 1868 1868 1868 1868 1868 1868 1868 1858 1848 1838 1838 1828 1828 1828 1828 1838 1828 1828 1819 1819 1819 1819 1819 1809 1809 1809 1809 1809 1800 1790 1790 1790 1790 1781 1781 1772 1772 1763 1763 1763 1763 1763 1754 1763 1754 1754 1754 1754 0 0 0 0 0 0 0 0 0 0 0 0 0 0 0 0 0 0 0 0 0 0 0 0 0 0 0 0 0 0 0 0 0 0 0 0 0 0 0
    1615 1615 1615 1615 1622 1622 1622 1622 1622 1630 1630 1630 1638 1638 1638 1638 1645 1645 1645 1645 1645 1645 1645 1653 1661 1661 1669 1669 1669 1669 1677 1677 1677 1677 1677 1677 1677 1686 1686 1686 1686 1686 1686 1686 1694 1694 1694 1702 1711 1711 1711 1719 1719 1719 1719 1719 1719 1728 1728 1736 1736 1745 1745 1745 1745 1745 1745 1745 1754 1754 1754 1754 1754 1763 1763 1763 1763 1772 1772 1781 1781 1781 1790 1790 1790 1790 1800 1800 1800 1809 1809 1819 1819 1819 1819 1819 1819 1819 1819 1819 1828 1828 1828 1838 1838 1838 1838 1838 1848 1848 1848 1858 1858 1858 1858 1858 1858 1868 1868 1868 1868 1868 1868 1878 1878 1888 1888 1888 1899 1899 1899 1909 1909 1909 1909 1909 1920 1920 1931 1931 1941 1941 1941 1941 1952 1952 1952 1952 1952 1952 1952 1952 1952 1964 1964 1975 1986 1986 1986 1986 1986 1998 1998 1998 1998 1998 2009 2009 2009 2009 2009 2009 2009 2009 2021 2033 2033 2033 2045 2045 2045 2045 2045 2045 2045 2045 2045 2045 2069 2069 2082 2082 2082 2082 2082 2082 2082 2095 2082 2095 2095 2095 2107 2107 2120 2120 2133 2133 2133 2147 2147 2147 2147 2147 2147 2160 2160 2174 2174 2174 2174 2187 2187 2187 2187 2201 2201 2201 2215 2201 2201 2201 2201 2201 2201 2201 2201 2201 2215 2215 2215 2230 2244 2244 2259 2259 2259 2274 2274 2274 2274 2289 2289 2289 2289 2289 2289 2304 2304 2304 2304 2320 2320 2320 2320 2335 2335 2351 2351 2367 2367 2367 2367 2367 2367 2367 2351 2351 2351 2335 2335 2320 2320 2320 2320 2320 2320 2320 2289 2274 2274 2259 2259 2259 2244 2244 2244 2244 2244 2244 2244 2230 2230 2215 2215 2201 2201 2201 2187 2187 2187 2187 2174 2174 2174 2174 2160 2160 2147 2147 2147 2133 2133 2133 2120 2107 2107 2107 2107 2095 2095 2095 2095 2082 2082 2082 2069 2069 2069 2057 2057 2045 2045 2045 2045 2033 2033 2033 2033 2033 2009 2009 2009 2003 1998 1998 1998 1998 1986 1986 1975 1975 1975 1964 1964 1964 1964 1964 1952 1952 1952 1941 1941 1941 1941 1941 1931 1931 1931 1920 1920 1909 1909 1909 1899 1899 1899 1899 1899 1888 1888 1878 1878 1868 1868 1868 1868 1868 1868 1868 1858 1858 1838 1838 1838 1828 1828 1828 1828 1828 1828 1819 1819 1819 1819 1809 1809 1809 1800 1800 1800 1790 1790 1790 1790 1781 1781 1772 1772 1772 1763 1754 1754 1754 1754 1754 1754 1754 1754 1754 1754 0 0 0 0 0 0 0 0 0 0 0 0 0 0 0 0 0 0 0 0 0 0 0 0 0 0 0 0 0 0 0 0 0 0 0 0 0 0 0
    1615 1615 1615 1615 1615 1622 1622 1622 1622 1622 1630 1630 1638 1638 1638 1645 1645 1645 1645 1645 1645 1645 1645 1653 1661 1669 1669 1669 1669 1669 1669 1677 1677 1677 1677 1677 1677 1686 1686 1686 1686 1686 1694 1694 1694 1694 1702 1711 1711 1711 1711 1711 1711 1719 1719 1719 1719 1728 1736 1736 1736 1745 1745 1745 1745 1745 1745 1745 1754 1754 1754 1754 1763 1763 1763 1763 1772 1772 1772 1772 1781 1781 1790 1790 1790 1800 1800 1800 1800 1809 1809 1809 1819 1819 1819 1819 1819 1819 1819 1819 1828 1828 1828 1838 1838 1838 1838 1838 1848 1848 1848 1858 1858 1858 1858 1858 1858 1868 1868 1868 1868 1868 1868 1878 1878 1878 1888 1888 1899 1909 1909 1909 1909 1920 1909 1909 1920 1920 1931 1931 1931 1931 1941 1941 1952 1952 1952 1952 1952 1952 1952 1952 1964 1964 1964 1975 1986 1986 1986 1986 1986 1986 1986 1998 1998 1998 2009 1998 1998 1998 1998 1998 2009 2021 2033 2033 2033 2033 2045 2045 2045 2045 2045 2045 2045 2045 2045 2045 2057 2069 2082 2082 2082 2082 2082 2082 2082 2095 2095 2095 2095 2107 2107 2107 2120 2133 2133 2133 2147 2147 2147 2147 2147 2147 2147 2147 2160 2160 2174 2174 2174 2187 2187 2187 2201 2201 2201 2201 2201 2201 2201 2201 2201 2201 2201 2201 2201 2201 2215 2215 2215 2230 2244 2259 2259 2259 2259 2274 2274 2274 2274 2274 2289 2274 2289 2289 2304 2304 2304 2304 2320 2320 2320 2320 2335 2335 2335 2351 2351 2367 2351 2351 2351 2367 2367 2367 2367 2351 2351 2351 2335 2335 2320 2320 2320 2320 2320 2320 2304 2274 2259 2259 2259 2259 2259 2259 2259 2259 2244 2244 2230 2230 2230 2215 2215 2201 2201 2201 2201 2187 2187 2187 2174 2174 2174 2174 2174 2160 2160 2147 2147 2133 2133 2133 2120 2107 2107 2107 2107 2095 2095 2095 2095 2082 2082 2082 2082 2069 2069 2057 2057 2045 2045 2045 2045 2045 2045 2033 2033 2045 2033 2009 2009 2009 1998 1998 1998 1998 1986 1986 1975 1975 1975 1964 1964 1964 1964 1952 1952 1952 1952 1952 1941 1941 1941 1931 1941 1920 1920 1920 1909 1909 1909 1909 1899 1899 1899 1899 1888 1888 1888 1878 1868 1868 1868 1868 1868 1868 1868 1868 1858 1858 1858 1848 1828 1828 1828 1819 1828 1828 1828 1819 1819 1819 1819 1819 1819 1809 1809 1800 1800 1790 1790 1790 1781 1781 1772 1772 1763 1763 1754 1754 1754 1754 1754 1754 1754 1754 1754 1754 1745 0 0 0 0 0 0 0 0 0 0 0 0 0 0 0 0 0 0 0 0 0 0 0 0 0 0 0 0 0 0 0 0 0 0 0 0 0 0 0
    1615 1615 1615 1615 1615 1615 1622 1622 1630 1630 1630 1638 1638 1638 1645 1645 1645 1645 1645 1653 1653 1653 1653 1653 1661 1669 1669 1669 1669 1669 1669 1669 1677 1677 1677 1677 1677 1686 1677 1686 1686 1694 1694 1694 1702 1702 1702 1702 1711 1711 1711 1711 1711 1719 1719 1719 1719 1728 1736 1736 1736 1745 1745 1745 1745 1745 1745 1745 1754 1754 1754 1754 1763 1763 1772 1772 1772 1772 1781 1781 1781 1781 1790 1790 1790 1790 1790 1800 1800 1800 1809 1809 1819 1819 1819 1819 1819 1819 1828 1819 1828 1828 1828 1838 1838 1838 1848 1848 1848 1848 1848 1858 1858 1858 1858 1858 1868 1868 1868 1868 1868 1868 1878 1878 1878 1878 1878 1868 1899 1899 1899 1909 1909 1909 1909 1909 1920 1920 1931 1931 1941 1941 1941 1952 1952 1952 1952 1952 1952 1952 1952 1952 1964 1964 1964 1975 1986 1986 1986 1986 1986 1986 1986 1998 1998 1998 1998 1998 1998 1998 1998 1998 2009 2009 2021 2033 2021 2033 2033 2045 2045 2045 2045 2045 2045 2045 2045 2045 2057 2069 2082 2082 2082 2082 2082 2082 2082 2095 2095 2095 2107 2107 2107 2120 2120 2133 2133 2133 2133 2147 2133 2147 2147 2147 2147 2147 2147 2160 2160 2160 2160 2187 2187 2187 2187 2201 2201 2201 2201 2201 2201 2201 2201 2201 2201 2201 2201 2201 2215 2215 2215 2215 2230 2259 2259 2259 2259 2259 2259 2274 2274 2274 2289 2274 2289 2289 2304 2304 2304 2304 2320 2320 2320 2335 2335 2351 2351 2351 2351 2367 2351 2351 2351 2367 2367 2367 2367 2367 2351 2351 2351 2335 2335 2320 2320 2320 2320 2320 2304 2259 2259 2259 2259 2259 2259 2259 2259 2259 2244 2244 2230 2230 2230 2215 2215 2201 2201 2201 2187 2187 2187 2187 2174 2174 2174 2160 2160 2160 2147 2147 2147 2133 2133 2120 2120 2107 2107 2107 2107 2107 2095 2095 2095 2082 2082 2082 2082 2069 2069 2069 2057 2057 2045 2045 2045 2045 2045 2033 2033 2045 2021 2009 2009 2009 2003 1998 1998 1998 1998 1986 1975 1975 1975 1964 1964 1964 1964 1952 1952 1952 1952 1952 1941 1941 1941 1941 1941 1931 1920 1920 1909 1920 1909 1909 1899 1899 1899 1899 1888 1888 1878 1878 1868 1868 1868 1868 1868 1868 1868 1868 1858 1858 1858 1848 1848 1848 1828 1819 1828 1828 1828 1819 1819 1819 1819 1819 1809 1809 1800 1800 1800 1790 1790 1790 1790 1781 1772 1772 1763 1763 1754 1754 1754 1754 1754 1754 1754 1754 1754 1754 1745 0 0 0 0 0 0 0 0 0 0 0 0 0 0 0 0 0 0 0 0 0 0 0 0 0 0 0 0 0 0 0 0 0 0 0 0 0 0 0
    1615 1615 1615 1615 1615 1615 1615 1615 1622 1622 1622 1630 1638 1638 1638 1645 1645 1645 1645 1653 1653 1661 1653 1653 1669 1669 1677 1677 1677 1677 1677 1677 1677 1677 1677 1677 1677 1686 1686 1677 1694 1694 1702 1702 1702 1702 1702 1702 1702 1702 1711 1711 1711 1711 1711 1719 1719 1728 1728 1736 1736 1736 1745 1745 1745 1745 1745 1745 1754 1754 1754 1763 1763 1763 1772 1772 1772 1772 1772 1781 1781 1781 1781 1790 1790 1790 1800 1800 1809 1809 1809 1819 1819 1819 1819 1819 1819 1819 1828 1828 1828 1828 1838 1838 1838 1848 1848 1848 1848 1848 1848 1858 1858 1858 1858 1858 1868 1868 1868 1868 1868 1868 1878 1878 1878 1878 1878 1888 1899 1899 1899 1909 1909 1920 1920 1920 1920 1920 1931 1931 1931 1941 1941 1941 1952 1941 1941 1952 1941 1952 1952 1952 1952 1964 1964 1986 1986 1986 1986 1986 1986 1986 1998 1998 1998 1998 1998 1998 1998 1998 1998 2003 2009 2009 2033 2033 2033 2045 2045 2045 2045 2045 2045 2057 2045 2045 2057 2057 2069 2069 2082 2082 2082 2082 2082 2082 2095 2095 2095 2107 2107 2107 2120 2107 2120 2120 2120 2133 2133 2133 2133 2147 2147 2147 2147 2147 2147 2160 2160 2160 2160 2174 2174 2187 2187 2187 2187 2201 2201 2201 2201 2201 2201 2201 2201 2201 2201 2201 2201 2215 2215 2215 2244 2259 2259 2259 2259 2259 2259 2274 2274 2274 2289 2274 2289 2304 2304 2304 2304 2320 2320 2320 2320 2335 2335 2351 2351 2351 2351 2367 2351 2351 2351 2367 2367 2351 2351 2351 2351 2351 2351 2335 2335 2335 2320 2320 2320 2320 2304 2274 2259 2259 2259 2259 2259 2259 2259 2259 2259 2244 2244 2230 2230 2215 2215 2201 2201 2201 2201 2187 2187 2187 2174 2174 2174 2160 2160 2147 2147 2147 2147 2147 2133 2120 2120 2120 2107 2107 2107 2107 2095 2095 2095 2082 2082 2082 2069 2069 2069 2069 2057 2045 2045 2045 2045 2045 2045 2045 2045 2033 2033 2021 2021 2009 2009 1998 1998 1998 1998 1986 1986 1986 1975 1975 1975 1975 1964 1964 1952 1952 1952 1941 1941 1941 1941 1941 1941 1931 1920 1920 1920 1920 1909 1909 1909 1899 1899 1899 1888 1888 1878 1878 1868 1868 1868 1868 1868 1868 1868 1858 1858 1858 1858 1848 1848 1848 1838 1828 1828 1828 1828 1828 1819 1819 1819 1819 1819 1809 1809 1800 1800 1790 1790 1790 1781 1781 1772 1772 1763 1763 1754 1754 1754 1754 1754 1754 1754 1754 1754 1754 1745 0 0 0 0 0 0 0 0 0 0 0 0 0 0 0 0 0 0 0 0 0 0 0 0 0 0 0 0 0 0 0 0 0 0 0 0 0 0 0
    1615 1615 1615 1615 1615 1615 1615 1622 1622 1622 1630 1630 1630 1638 1638 1638 1645 1645 1645 1653 1653 1653 1653 1661 1653 1669 1669 1677 1677 1677 1677 1677 1677 1669 1677 1677 1677 1686 1677 1686 1686 1702 1702 1702 1702 1702 1702 1702 1702 1702 1711 1711 1711 1711 1719 1719 1719 1728 1728 1728 1736 1736 1736 1745 1745 1745 1745 1745 1754 1754 1754 1754 1763 1763 1763 1763 1772 1772 1772 1781 1781 1781 1781 1790 1790 1790 1800 1800 1809 1809 1819 1819 1819 1819 1819 1819 1819 1819 1828 1828 1828 1828 1838 1838 1838 1838 1848 1848 1848 1848 1848 1848 1858 1858 1858 1858 1868 1868 1868 1868 1868 1868 1868 1868 1868 1868 1878 1878 1888 1899 1899 1899 1909 1909 1909 1909 1920 1920 1931 1931 1941 1941 1941 1941 1952 1952 1941 1941 1941 1952 1952 1952 1952 1964 1964 1986 1986 1986 1975 1986 1986 1986 1986 1986 1986 1986 1998 1998 1998 1998 1998 2009 2009 2021 2033 2033 2033 2045 2045 2045 2045 2045 2045 2057 2045 2057 2057 2057 2069 2082 2082 2082 2082 2082 2082 2082 2095 2095 2095 2107 2107 2107 2107 2107 2107 2120 2120 2133 2133 2133 2133 2147 2147 2147 2147 2147 2147 2147 2147 2147 2147 2174 2174 2174 2187 2187 2187 2187 2187 2187 2201 2201 2201 2201 2201 2201 2201 2201 2215 2215 2230 2230 2244 2259 2259 2259 2259 2259 2259 2259 2274 2274 2289 2289 2289 2304 2304 2304 2304 2320 2320 2320 2320 2335 2335 2351 2351 2351 2367 2367 2367 2367 2367 2367 2367 2367 2351 2367 2351 2351 2335 2335 2335 2335 2320 2320 2320 2304 2304 2274 2274 2259 2259 2259 2259 2259 2259 2259 2244 2244 2244 2230 2230 2215 2215 2201 2201 2201 2201 2187 2187 2187 2187 2174 2174 2160 2160 2147 2147 2147 2147 2147 2133 2133 2120 2120 2120 2107 2107 2107 2095 2095 2095 2082 2082 2082 2069 2069 2069 2069 2057 2045 2045 2045 2045 2045 2045 2045 2045 2033 2033 2033 2021 2021 2009 1998 1998 1998 1998 1998 1986 1986 1986 1986 1975 1975 1964 1964 1964 1952 1952 1941 1941 1941 1931 1941 1931 1920 1920 1920 1920 1920 1909 1909 1909 1899 1899 1899 1899 1888 1878 1878 1868 1868 1868 1868 1868 1858 1868 1858 1858 1858 1848 1848 1848 1848 1838 1819 1828 1828 1828 1828 1819 1819 1819 1819 1809 1809 1800 1790 1790 1790 1781 1781 1781 1772 1772 1763 1763 1763 1754 1754 1754 1754 1754 1754 1754 1754 1754 1745 1745 0 0 0 0 0 0 0 0 0 0 0 0 0 0 0 0 0 0 0 0 0 0 0 0 0 0 0 0 0 0 0 0 0 0 0 0 0 0 0
    1615 1615 1615 1615 1615 1615 1615 1622 1622 1622 1630 1630 1630 1638 1638 1638 1645 1645 1645 1645 1653 1653 1653 1653 1653 1661 1669 1677 1677 1677 1677 1677 1677 1677 1677 1677 1686 1686 1677 1686 1694 1694 1702 1702 1702 1702 1702 1702 1702 1702 1711 1711 1711 1719 1719 1719 1728 1728 1728 1736 1736 1736 1745 1745 1745 1745 1745 1745 1754 1754 1754 1754 1763 1754 1763 1763 1763 1772 1772 1772 1781 1781 1781 1790 1790 1790 1790 1800 1800 1809 1809 1819 1819 1819 1819 1819 1819 1819 1828 1828 1828 1828 1838 1838 1838 1838 1848 1848 1848 1848 1848 1858 1858 1858 1858 1858 1868 1868 1868 1868 1868 1868 1868 1868 1868 1878 1878 1888 1899 1899 1899 1899 1909 1909 1909 1920 1920 1931 1941 1931 1941 1941 1941 1941 1952 1941 1941 1941 1941 1941 1952 1952 1952 1952 1964 1986 1986 1986 1975 1975 1975 1986 1986 1986 1986 1998 1998 1998 1998 1998 1998 1998 2009 2021 2021 2021 2033 2033 2033 2045 2045 2045 2045 2057 2057 2057 2057 2069 2069 2069 2082 2082 2082 2082 2082 2082 2095 2095 2095 2095 2107 2107 2107 2107 2107 2107 2107 2120 2133 2133 2133 2133 2147 2147 2147 2147 2147 2147 2160 2147 2147 2174 2174 2174 2187 2187 2187 2187 2187 2187 2187 2201 2201 2201 2201 2201 2201 2215 2215 2230 2230 2244 2244 2259 2259 2259 2259 2259 2259 2259 2274 2274 2274 2274 2289 2304 2304 2304 2320 2320 2320 2320 2320 2335 2335 2351 2351 2351 2367 2367 2367 2367 2367 2367 2367 2367 2367 2367 2351 2351 2335 2335 2320 2320 2320 2320 2320 2304 2304 2274 2274 2259 2259 2259 2259 2259 2259 2259 2244 2244 2230 2230 2230 2215 2215 2201 2201 2187 2187 2187 2187 2187 2187 2174 2174 2160 2147 2147 2147 2147 2147 2133 2133 2120 2120 2120 2120 2107 2107 2107 2095 2095 2095 2095 2082 2082 2069 2069 2057 2069 2057 2045 2045 2045 2045 2045 2045 2033 2045 2033 2033 2033 2021 2021 2009 1998 2003 1998 1998 1998 1986 1986 1975 1975 1975 1975 1964 1964 1964 1952 1952 1941 1941 1941 1931 1931 1920 1920 1920 1920 1909 1920 1909 1909 1909 1899 1899 1899 1888 1878 1878 1878 1868 1868 1868 1868 1858 1858 1858 1858 1858 1858 1838 1838 1838 1838 1828 1828 1828 1828 1828 1828 1819 1819 1819 1809 1809 1800 1800 1790 1790 1781 1781 1781 1772 1772 1772 1763 1763 1763 1754 1754 1754 1754 1745 1745 1745 1745 1745 1745 1745 0 0 0 0 0 0 0 0 0 0 0 0 0 0 0 0 0 0 0 0 0 0 0 0 0 0 0 0 0 0 0 0 0 0 0 0 0 0 0
    1615 1615 1615 1615 1615 1615 1622 1622 1622 1630 1630 1630 1638 1638 1638 1638 1645 1645 1645 1645 1653 1653 1653 1653 1653 1661 1661 1661 1669 1669 1669 1669 1677 1677 1677 1677 1677 1686 1677 1686 1686 1694 1694 1702 1702 1702 1702 1702 1711 1711 1711 1711 1719 1719 1719 1719 1728 1728 1736 1736 1736 1736 1736 1745 1745 1745 1745 1745 1745 1754 1754 1754 1754 1763 1763 1763 1772 1772 1772 1781 1781 1781 1790 1790 1781 1790 1790 1790 1790 1809 1809 1809 1819 1819 1819 1819 1819 1819 1819 1828 1828 1828 1828 1838 1838 1838 1848 1848 1848 1848 1858 1858 1858 1858 1858 1868 1868 1868 1868 1868 1868 1868 1868 1868 1868 1878 1878 1888 1899 1899 1899 1899 1899 1909 1909 1920 1920 1931 1931 1931 1931 1941 1941 1941 1941 1952 1952 1952 1952 1952 1952 1952 1952 1964 1964 1975 1986 1986 1986 1975 1986 1986 1986 1986 1986 1998 1998 1998 1998 1998 1998 1998 1998 2021 2033 2033 2033 2033 2033 2033 2045 2045 2045 2045 2045 2057 2057 2057 2069 2069 2082 2082 2082 2082 2082 2082 2095 2095 2095 2095 2107 2107 2107 2107 2107 2107 2107 2120 2133 2133 2133 2133 2147 2147 2147 2147 2147 2147 2160 2147 2160 2174 2174 2174 2187 2187 2187 2187 2187 2187 2187 2201 2201 2201 2201 2215 2215 2215 2215 2230 2230 2230 2244 2244 2244 2259 2259 2259 2259 2259 2274 2274 2274 2289 2289 2304 2304 2304 2304 2320 2320 2320 2320 2335 2335 2351 2351 2351 2367 2367 2367 2367 2367 2367 2367 2367 2367 2351 2351 2351 2335 2335 2320 2320 2320 2320 2320 2304 2274 2259 2259 2259 2259 2259 2259 2259 2259 2259 2244 2244 2230 2230 2230 2215 2215 2201 2201 2201 2201 2187 2187 2174 2187 2174 2160 2160 2147 2147 2147 2147 2133 2133 2133 2120 2120 2120 2107 2107 2107 2095 2095 2095 2095 2082 2082 2082 2069 2057 2057 2069 2057 2045 2045 2045 2045 2045 2045 2033 2045 2033 2033 2021 2021 2021 2009 1998 2009 1998 1998 1998 1986 1986 1975 1975 1975 1964 1964 1964 1964 1952 1952 1941 1941 1941 1931 1931 1920 1920 1920 1920 1920 1920 1909 1909 1909 1909 1899 1899 1888 1878 1878 1878 1878 1868 1868 1868 1858 1858 1858 1858 1858 1858 1848 1848 1848 1838 1838 1828 1828 1828 1828 1828 1819 1819 1819 1809 1809 1800 1800 1790 1790 1781 1781 1781 1772 1772 1763 1763 1763 1763 1754 1754 1754 1754 1749 1745 1745 1745 1745 1745 1745 0 0 0 0 0 0 0 0 0 0 0 0 0 0 0 0 0 0 0 0 0 0 0 0 0 0 0 0 0 0 0 0 0 0 0 0 0 0 0
    1615 1615 1615 1615 1615 1615 1615 1622 1622 1622 1622 1630 1638 1638 1638 1645 1645 1645 1645 1645 1653 1653 1653 1653 1661 1661 1661 1661 1669 1669 1669 1677 1677 1677 1677 1677 1686 1686 1686 1686 1686 1694 1694 1702 1702 1702 1711 1702 1711 1711 1711 1711 1719 1719 1719 1728 1728 1728 1736 1736 1736 1736 1736 1745 1745 1745 1745 1745 1749 1754 1754 1754 1754 1763 1763 1763 1772 1772 1772 1781 1781 1781 1790 1790 1781 1790 1790 1790 1790 1809 1809 1819 1819 1819 1819 1819 1819 1819 1819 1828 1828 1828 1828 1838 1838 1838 1838 1848 1848 1848 1858 1858 1858 1858 1868 1868 1868 1868 1868 1868 1868 1868 1868 1878 1868 1878 1888 1888 1899 1899 1899 1899 1899 1909 1909 1909 1920 1920 1931 1931 1931 1941 1941 1941 1952 1952 1952 1952 1952 1952 1952 1952 1952 1964 1964 1975 1975 1975 1986 1986 1986 1986 1986 1986 1986 1986 1998 1998 1998 1998 1998 1998 2003 2009 2021 2021 2033 2045 2033 2033 2033 2033 2045 2045 2057 2045 2057 2057 2069 2069 2069 2069 2082 2082 2082 2082 2095 2095 2095 2107 2107 2107 2095 2095 2095 2107 2107 2120 2120 2133 2133 2133 2133 2147 2147 2147 2147 2147 2147 2160 2160 2174 2174 2174 2187 2187 2187 2187 2187 2187 2201 2201 2201 2201 2201 2215 2215 2215 2215 2230 2230 2230 2244 2244 2244 2259 2259 2259 2259 2259 2259 2274 2274 2289 2289 2304 2304 2304 2304 2320 2320 2320 2320 2335 2335 2351 2351 2351 2367 2367 2367 2367 2367 2367 2367 2367 2351 2351 2351 2335 2335 2320 2320 2320 2320 2320 2320 2304 2274 2274 2274 2259 2259 2259 2259 2259 2259 2259 2244 2244 2230 2230 2215 2215 2201 2201 2201 2187 2187 2187 2187 2174 2187 2174 2160 2160 2147 2147 2147 2147 2133 2133 2133 2120 2120 2120 2107 2107 2107 2095 2095 2095 2095 2082 2082 2082 2069 2069 2057 2069 2057 2045 2045 2045 2045 2045 2045 2033 2033 2033 2021 2021 2021 2009 2009 2003 2009 1998 1998 1986 1986 1986 1975 1975 1975 1964 1964 1964 1964 1952 1952 1941 1941 1941 1941 1941 1920 1920 1920 1920 1920 1920 1909 1909 1909 1899 1899 1899 1888 1878 1878 1878 1878 1868 1868 1868 1858 1858 1858 1858 1858 1838 1828 1828 1828 1838 1828 1828 1828 1828 1828 1828 1819 1819 1819 1809 1800 1800 1800 1790 1790 1781 1781 1781 1772 1763 1763 1763 1763 1763 1763 1763 1763 1754 1754 1745 1745 1745 1745 1745 1745 0 0 0 0 0 0 0 0 0 0 0 0 0 0 0 0 0 0 0 0 0 0 0 0 0 0 0 0 0 0 0 0 0 0 0 0 0 0 0
    1615 1615 1615 1615 1615 1615 1615 1622 1622 1622 1622 1630 1638 1638 1638 1638 1645 1645 1645 1645 1653 1653 1653 1653 1653 1661 1661 1661 1669 1677 1669 1677 1677 1677 1677 1686 1686 1686 1686 1686 1694 1694 1694 1702 1702 1702 1711 1702 1711 1711 1711 1711 1719 1719 1728 1728 1728 1728 1736 1736 1736 1736 1736 1745 1745 1745 1745 1745 1754 1754 1754 1754 1763 1763 1763 1763 1772 1772 1772 1781 1781 1781 1790 1790 1781 1790 1790 1790 1790 1800 1809 1809 1819 1819 1819 1819 1819 1819 1819 1828 1828 1828 1828 1838 1838 1838 1848 1848 1848 1848 1848 1858 1858 1858 1868 1868 1868 1868 1868 1868 1868 1868 1868 1868 1868 1878 1888 1888 1899 1899 1899 1899 1899 1899 1909 1909 1909 1920 1920 1931 1931 1941 1941 1941 1941 1952 1952 1952 1952 1952 1952 1952 1952 1964 1964 1964 1975 1975 1975 1975 1975 1986 1986 1986 1986 1998 1998 1998 1998 1998 1998 2003 2009 2009 2021 2033 2033 2045 2033 2033 2033 2033 2045 2045 2045 2045 2057 2057 2057 2069 2069 2069 2069 2082 2082 2082 2095 2095 2095 2107 2107 2107 2095 2095 2095 2107 2107 2120 2120 2120 2133 2133 2133 2147 2147 2147 2147 2147 2147 2160 2160 2160 2174 2187 2187 2187 2187 2187 2187 2187 2187 2201 2201 2201 2215 2215 2215 2230 2230 2230 2230 2230 2230 2244 2244 2244 2259 2259 2259 2259 2274 2274 2274 2289 2289 2304 2304 2304 2304 2320 2320 2320 2320 2335 2335 2351 2351 2351 2351 2367 2367 2367 2367 2367 2367 2367 2351 2351 2351 2335 2320 2320 2320 2320 2320 2320 2320 2304 2304 2289 2274 2274 2259 2259 2259 2244 2259 2244 2244 2244 2230 2230 2215 2215 2201 2201 2201 2201 2201 2201 2187 2187 2187 2174 2174 2160 2147 2147 2147 2147 2133 2133 2133 2120 2120 2120 2107 2107 2107 2095 2095 2095 2095 2095 2082 2082 2069 2069 2057 2069 2057 2045 2045 2045 2045 2045 2045 2033 2033 2033 2033 2021 2021 2021 2009 2009 2009 1998 1998 1986 1986 1986 1975 1975 1975 1964 1964 1964 1952 1952 1952 1941 1941 1941 1941 1941 1931 1920 1920 1920 1909 1909 1909 1909 1909 1899 1899 1899 1899 1888 1878 1878 1878 1878 1868 1868 1858 1858 1868 1858 1848 1838 1838 1838 1838 1838 1828 1828 1828 1828 1828 1819 1819 1819 1809 1809 1800 1800 1800 1790 1790 1790 1781 1781 1772 1772 1772 1763 1763 1763 1763 1763 1763 1754 1754 1745 1745 1745 1745 1745 1745 0 0 0 0 0 0 0 0 0 0 0 0 0 0 0 0 0 0 0 0 0 0 0 0 0 0 0 0 0 0 0 0 0 0 0 0 0 0 0
    1615 1615 1615 1615 1615 1615 1615 1622 1622 1622 1622 1630 1630 1638 1638 1645 1645 1645 1645 1645 1653 1653 1653 1653 1653 1661 1661 1661 1661 1669 1669 1677 1677 1677 1677 1686 1686 1686 1686 1694 1694 1694 1702 1702 1702 1702 1711 1711 1711 1711 1711 1719 1719 1719 1728 1728 1728 1728 1736 1736 1736 1736 1736 1736 1745 1745 1745 1745 1754 1754 1754 1754 1754 1763 1763 1763 1772 1772 1772 1781 1781 1781 1781 1790 1790 1790 1790 1790 1790 1809 1819 1819 1819 1819 1819 1819 1819 1819 1819 1828 1828 1828 1828 1828 1838 1838 1848 1848 1848 1848 1858 1858 1858 1868 1868 1868 1868 1868 1868 1868 1868 1868 1868 1868 1868 1878 1878 1888 1899 1899 1899 1899 1899 1899 1909 1909 1920 1920 1931 1931 1931 1941 1941 1941 1941 1952 1952 1952 1952 1952 1964 1964 1952 1964 1964 1964 1975 1975 1975 1975 1975 1986 1986 1986 1986 1998 1998 1998 1998 1998 1998 2009 2009 2021 2021 2033 2033 2045 2021 2033 2033 2057 2057 2057 2057 2045 2057 2057 2057 2057 2069 2069 2069 2069 2082 2082 2095 2095 2095 2107 2107 2107 2107 2095 2095 2107 2107 2120 2120 2133 2133 2133 2133 2147 2147 2147 2147 2147 2147 2160 2160 2174 2174 2174 2187 2187 2187 2187 2187 2187 2187 2201 2201 2215 2215 2230 2230 2230 2230 2230 2230 2230 2244 2244 2244 2244 2259 2259 2259 2259 2274 2274 2289 2289 2289 2304 2304 2304 2304 2304 2304 2320 2320 2320 2335 2351 2351 2351 2367 2367 2367 2367 2367 2367 2367 2367 2351 2351 2335 2320 2320 2320 2320 2320 2320 2320 2304 2304 2304 2289 2274 2274 2259 2259 2259 2244 2244 2244 2244 2244 2230 2230 2215 2201 2201 2201 2201 2201 2201 2187 2187 2187 2187 2160 2160 2147 2147 2147 2147 2133 2133 2133 2133 2120 2107 2107 2107 2107 2095 2095 2095 2095 2095 2082 2082 2082 2069 2069 2069 2069 2057 2045 2045 2045 2045 2045 2045 2033 2033 2033 2033 2021 2021 2021 2009 1998 1998 1998 1998 1998 1986 1986 1975 1975 1964 1964 1964 1964 1952 1952 1952 1941 1941 1941 1941 1931 1931 1920 1920 1920 1909 1909 1909 1909 1909 1899 1899 1899 1888 1888 1878 1878 1878 1878 1868 1868 1868 1858 1868 1858 1848 1838 1828 1838 1828 1838 1828 1828 1828 1828 1828 1819 1819 1819 1809 1800 1790 1790 1790 1790 1781 1781 1781 1781 1772 1772 1772 1772 1772 1763 1763 1763 1763 1754 1754 1745 1745 1745 1745 1745 1745 0 0 0 0 0 0 0 0 0 0 0 0 0 0 0 0 0 0 0 0 0 0 0 0 0 0 0 0 0 0 0 0 0 0 0 0 0 0 0
    1615 1615 1615 1615 1615 1615 1615 1622 1622 1622 1630 1630 1638 1638 1638 1645 1645 1645 1645 1645 1653 1653 1653 1653 1653 1653 1653 1661 1661 1669 1661 1669 1677 1677 1686 1686 1686 1686 1686 1694 1694 1694 1694 1694 1702 1702 1711 1711 1711 1711 1711 1719 1719 1719 1728 1728 1728 1728 1728 1728 1728 1728 1736 1736 1736 1745 1745 1745 1754 1754 1754 1754 1754 1763 1763 1763 1772 1772 1772 1781 1781 1781 1781 1781 1781 1790 1790 1790 1800 1809 1809 1809 1819 1819 1819 1819 1819 1819 1819 1819 1819 1828 1828 1828 1828 1838 1838 1848 1848 1848 1858 1858 1858 1858 1858 1868 1868 1868 1868 1868 1868 1868 1868 1868 1868 1878 1878 1888 1899 1899 1899 1899 1899 1909 1909 1909 1920 1920 1931 1931 1931 1941 1941 1941 1941 1964 1964 1964 1964 1964 1964 1964 1952 1952 1952 1964 1975 1975 1975 1986 1986 1986 1986 1986 1986 1998 1998 1998 1998 2009 2009 2009 1998 2021 2021 2033 2033 2033 2021 2021 2033 2045 2045 2057 2045 2045 2045 2057 2057 2057 2057 2082 2082 2082 2082 2082 2095 2095 2095 2095 2095 2095 2095 2095 2095 2095 2107 2107 2120 2133 2133 2133 2147 2147 2147 2147 2147 2147 2147 2147 2160 2160 2174 2174 2187 2187 2187 2187 2187 2187 2187 2201 2201 2215 2215 2230 2230 2230 2244 2244 2244 2244 2244 2244 2244 2244 2259 2259 2259 2259 2274 2274 2274 2289 2289 2304 2304 2304 2304 2304 2304 2304 2320 2320 2335 2335 2335 2351 2351 2367 2367 2367 2367 2367 2367 2367 2351 2335 2335 2320 2320 2304 2304 2304 2304 2304 2304 2304 2289 2289 2274 2274 2259 2259 2259 2259 2244 2244 2244 2244 2230 2230 2215 2201 2201 2201 2201 2201 2201 2187 2187 2187 2187 2174 2160 2147 2147 2147 2133 2133 2133 2133 2120 2107 2107 2095 2095 2095 2095 2095 2095 2095 2082 2095 2082 2082 2082 2069 2069 2069 2057 2045 2045 2045 2045 2045 2045 2045 2033 2033 2021 2021 2021 2009 2009 1998 1998 1998 1998 1998 1998 1975 1975 1964 1964 1964 1964 1964 1952 1952 1952 1952 1952 1941 1941 1941 1931 1920 1920 1920 1909 1909 1909 1909 1909 1899 1899 1899 1888 1888 1888 1878 1878 1878 1868 1868 1868 1868 1868 1858 1858 1848 1828 1838 1828 1838 1828 1828 1828 1828 1819 1819 1819 1809 1800 1800 1790 1790 1790 1790 1781 1781 1781 1781 1772 1772 1772 1772 1763 1763 1754 1754 1754 1754 1754 1745 1745 1745 1745 1745 1745 0 0 0 0 0 0 0 0 0 0 0 0 0 0 0 0 0 0 0 0 0 0 0 0 0 0 0 0 0 0 0 0 0 0 0 0 0 0 0
    1615 1615 1615 1615 1622 1622 1622 1622 1622 1630 1630 1630 1638 1638 1638 1645 1638 1645 1645 1645 1645 1653 1645 1653 1653 1661 1661 1661 1661 1669 1669 1669 1677 1677 1686 1686 1686 1686 1686 1694 1694 1694 1694 1702 1702 1702 1702 1702 1702 1711 1711 1711 1719 1719 1719 1719 1728 1728 1736 1736 1736 1736 1736 1745 1745 1745 1749 1749 1754 1754 1754 1754 1763 1763 1763 1763 1772 1772 1772 1781 1781 1781 1790 1790 1790 1790 1790 1790 1800 1809 1809 1809 1819 1819 1819 1819 1819 1819 1819 1828 1819 1828 1828 1828 1828 1838 1838 1848 1848 1848 1858 1858 1858 1858 1858 1858 1868 1868 1868 1868 1868 1868 1868 1878 1878 1878 1888 1899 1899 1899 1899 1899 1899 1909 1909 1909 1920 1920 1931 1931 1931 1941 1941 1941 1941 1964 1952 1952 1952 1964 1964 1964 1952 1964 1964 1964 1975 1975 1975 1975 1975 1986 1986 1986 1986 1986 1998 1998 1998 1998 2009 2009 2003 2009 2009 2009 2009 2021 2021 2021 2033 2033 2033 2045 2045 2045 2045 2045 2057 2057 2069 2069 2069 2082 2082 2095 2095 2095 2095 2095 2095 2095 2095 2095 2095 2095 2107 2107 2120 2120 2133 2133 2133 2147 2147 2147 2147 2147 2147 2160 2160 2174 2187 2187 2187 2187 2187 2187 2187 2187 2187 2201 2201 2201 2215 2230 2230 2230 2244 2244 2244 2244 2244 2244 2244 2244 2259 2259 2259 2259 2259 2274 2274 2289 2289 2289 2289 2304 2304 2304 2304 2304 2320 2320 2335 2335 2351 2351 2351 2367 2367 2367 2367 2367 2367 2367 2351 2335 2320 2320 2304 2304 2304 2304 2304 2304 2304 2304 2289 2289 2274 2274 2274 2259 2259 2259 2259 2244 2244 2244 2244 2230 2215 2215 2201 2201 2201 2201 2201 2187 2187 2187 2187 2174 2160 2147 2147 2147 2133 2133 2133 2133 2120 2120 2107 2095 2095 2095 2095 2095 2095 2095 2095 2095 2095 2082 2082 2069 2069 2057 2057 2057 2045 2045 2045 2045 2045 2033 2033 2033 2021 2021 2021 2009 2009 1998 1998 1998 1998 1998 1986 1986 1986 1964 1964 1952 1952 1952 1952 1952 1952 1952 1952 1952 1941 1941 1931 1920 1920 1920 1909 1909 1909 1899 1909 1899 1899 1888 1888 1888 1878 1878 1878 1878 1868 1868 1868 1868 1868 1858 1858 1858 1828 1828 1828 1838 1828 1828 1828 1828 1828 1819 1819 1809 1809 1800 1790 1790 1790 1790 1781 1781 1781 1781 1772 1772 1772 1772 1772 1763 1763 1754 1754 1745 1745 1745 1745 1745 1745 1745 1745 0 0 0 0 0 0 0 0 0 0 0 0 0 0 0 0 0 0 0 0 0 0 0 0 0 0 0 0 0 0 0 0 0 0 0 0 0 0 0
    1615 1615 1615 1622 1622 1622 1622 1622 1630 1630 1630 1638 1638 1638 1638 1645 1645 1645 1645 1645 1645 1653 1653 1653 1653 1661 1661 1661 1661 1669 1669 1677 1677 1677 1677 1686 1686 1686 1686 1686 1694 1694 1702 1702 1702 1702 1702 1702 1711 1711 1711 1711 1719 1719 1728 1728 1736 1736 1736 1736 1736 1736 1745 1745 1745 1745 1754 1754 1754 1754 1754 1754 1763 1763 1763 1763 1772 1772 1772 1781 1781 1781 1790 1790 1790 1790 1790 1790 1800 1809 1809 1809 1809 1819 1819 1819 1819 1819 1819 1819 1819 1828 1828 1828 1838 1838 1838 1848 1848 1848 1858 1858 1858 1858 1858 1858 1858 1868 1868 1868 1868 1868 1878 1878 1878 1878 1888 1888 1899 1899 1899 1899 1899 1899 1909 1909 1920 1920 1920 1931 1931 1941 1941 1941 1941 1952 1952 1952 1952 1952 1964 1964 1952 1964 1964 1964 1975 1975 1975 1986 1986 1986 1986 1986 1986 1998 1998 1998 1998 2003 2009 2009 2009 2009 2009 2021 2009 2021 2021 2021 2033 2033 2033 2045 2045 2045 2045 2045 2057 2057 2069 2069 2069 2082 2082 2082 2082 2095 2095 2095 2095 2095 2095 2095 2095 2095 2095 2107 2107 2107 2133 2133 2133 2133 2147 2147 2147 2147 2147 2160 2160 2174 2174 2187 2187 2187 2187 2187 2187 2187 2201 2201 2201 2215 2215 2230 2230 2230 2244 2244 2244 2244 2244 2244 2244 2244 2244 2244 2259 2259 2259 2259 2274 2274 2289 2289 2289 2304 2304 2304 2304 2304 2320 2320 2335 2335 2351 2351 2351 2367 2367 2367 2351 2367 2351 2351 2351 2335 2320 2320 2304 2304 2304 2304 2304 2304 2304 2304 2304 2289 2289 2274 2274 2259 2259 2259 2244 2244 2244 2244 2244 2230 2215 2215 2201 2201 2201 2201 2201 2187 2187 2174 2174 2160 2147 2147 2147 2147 2147 2133 2133 2133 2120 2107 2107 2095 2095 2095 2095 2095 2095 2095 2095 2095 2095 2082 2082 2069 2069 2069 2057 2057 2045 2045 2045 2045 2045 2033 2033 2033 2021 2021 2009 2009 1998 1998 1998 1986 1986 1986 1986 1986 1986 1964 1964 1952 1952 1952 1952 1952 1952 1952 1952 1952 1941 1941 1931 1920 1920 1920 1909 1909 1909 1899 1899 1899 1888 1888 1888 1888 1878 1878 1878 1878 1868 1868 1868 1868 1868 1858 1858 1858 1858 1848 1828 1838 1828 1828 1828 1828 1828 1819 1819 1819 1809 1800 1790 1790 1790 1790 1790 1781 1781 1781 1781 1781 1772 1772 1763 1763 1754 1754 1754 1745 1745 1745 1745 1745 1736 1745 1736 0 0 0 0 0 0 0 0 0 0 0 0 0 0 0 0 0 0 0 0 0 0 0 0 0 0 0 0 0 0 0 0 0 0 0 0 0 0 0
    1615 1615 1615 1622 1622 1615 1622 1622 1622 1630 1630 1638 1638 1638 1638 1645 1645 1645 1645 1645 1645 1653 1653 1653 1661 1653 1661 1661 1669 1669 1669 1677 1677 1677 1686 1686 1686 1686 1686 1686 1694 1694 1694 1694 1702 1702 1702 1702 1702 1711 1711 1711 1719 1719 1719 1719 1728 1736 1736 1745 1745 1736 1745 1745 1745 1745 1754 1754 1754 1754 1754 1754 1763 1763 1763 1772 1772 1772 1781 1781 1781 1781 1790 1790 1790 1790 1790 1790 1800 1809 1809 1809 1809 1819 1819 1819 1819 1819 1819 1819 1819 1828 1828 1828 1838 1838 1848 1848 1848 1848 1858 1858 1858 1858 1858 1858 1868 1868 1868 1868 1868 1868 1878 1878 1878 1878 1878 1888 1899 1899 1899 1899 1899 1899 1909 1920 1931 1931 1931 1931 1941 1941 1941 1941 1941 1952 1952 1952 1952 1952 1952 1964 1964 1964 1964 1964 1975 1975 1975 1975 1986 1986 1986 1986 1986 1998 1998 1998 1998 2009 2009 2009 2009 2009 2009 2021 2021 2021 2021 2021 2033 2033 2033 2033 2045 2045 2045 2045 2057 2057 2057 2057 2082 2082 2082 2082 2082 2082 2095 2095 2095 2095 2095 2095 2095 2095 2095 2107 2107 2107 2120 2133 2133 2133 2147 2147 2147 2147 2147 2160 2160 2174 2174 2187 2187 2187 2187 2187 2187 2187 2201 2201 2215 2215 2230 2230 2230 2230 2244 2244 2244 2244 2244 2244 2244 2244 2259 2259 2259 2259 2259 2274 2289 2274 2289 2289 2304 2304 2304 2304 2304 2320 2320 2320 2320 2335 2351 2351 2351 2367 2367 2351 2351 2351 2351 2351 2351 2335 2320 2320 2304 2304 2304 2304 2304 2304 2304 2304 2304 2289 2289 2274 2274 2259 2259 2244 2244 2244 2244 2244 2230 2230 2215 2215 2201 2201 2201 2201 2201 2187 2187 2187 2174 2160 2160 2147 2147 2147 2147 2133 2133 2133 2120 2120 2107 2107 2107 2107 2095 2095 2095 2095 2095 2095 2095 2082 2082 2082 2069 2069 2069 2057 2057 2045 2045 2045 2045 2033 2033 2033 2021 2021 2009 2021 2009 1998 1998 1998 1998 1998 1986 1986 1986 1964 1952 1952 1952 1952 1952 1952 1952 1952 1952 1952 1941 1941 1931 1920 1920 1909 1909 1909 1899 1899 1899 1888 1888 1888 1878 1878 1878 1878 1878 1868 1868 1868 1868 1868 1868 1858 1858 1858 1858 1858 1828 1848 1838 1828 1828 1828 1828 1819 1819 1819 1809 1809 1800 1790 1790 1790 1790 1790 1790 1781 1781 1781 1772 1772 1763 1754 1754 1754 1754 1745 1745 1745 1745 1736 1736 1736 1736 0 0 0 0 0 0 0 0 0 0 0 0 0 0 0 0 0 0 0 0 0 0 0 0 0 0 0 0 0 0 0 0 0 0 0 0 0 0 0
    1615 1615 1615 1622 1622 1622 1622 1622 1622 1630 1630 1638 1638 1638 1638 1645 1645 1645 1645 1645 1653 1653 1653 1653 1661 1661 1669 1669 1669 1677 1677 1677 1677 1677 1686 1686 1686 1686 1686 1686 1694 1694 1694 1694 1702 1702 1702 1702 1702 1711 1711 1711 1711 1719 1719 1719 1728 1736 1745 1745 1745 1745 1745 1745 1745 1745 1745 1745 1754 1754 1754 1754 1754 1763 1763 1781 1781 1781 1781 1781 1781 1781 1790 1790 1790 1790 1790 1790 1800 1809 1809 1809 1809 1819 1819 1819 1819 1819 1819 1828 1828 1828 1828 1828 1828 1828 1848 1848 1848 1858 1858 1858 1858 1858 1858 1858 1868 1868 1868 1868 1868 1868 1878 1878 1878 1878 1878 1888 1888 1899 1899 1899 1899 1909 1909 1920 1920 1931 1931 1931 1931 1941 1941 1941 1941 1952 1952 1952 1952 1964 1964 1964 1952 1952 1952 1952 1975 1975 1975 1975 1975 1986 1986 1986 1986 1986 1998 1998 1998 2009 2009 2009 2009 2009 2021 2021 2021 2021 2033 2033 2033 2033 2033 2045 2045 2045 2045 2045 2057 2057 2057 2057 2057 2069 2082 2082 2082 2082 2082 2095 2095 2095 2095 2095 2095 2095 2095 2095 2095 2107 2120 2120 2133 2133 2147 2147 2147 2147 2147 2160 2160 2174 2174 2187 2187 2187 2187 2187 2187 2187 2187 2201 2215 2215 2230 2230 2230 2244 2244 2244 2244 2244 2244 2244 2244 2244 2259 2259 2259 2259 2259 2274 2289 2289 2289 2289 2304 2304 2304 2304 2304 2320 2320 2320 2320 2320 2335 2351 2351 2351 2351 2351 2351 2351 2335 2335 2335 2335 2320 2320 2304 2320 2304 2304 2304 2304 2304 2304 2289 2289 2289 2274 2274 2259 2259 2259 2244 2244 2244 2244 2230 2230 2215 2215 2201 2201 2201 2187 2187 2187 2187 2174 2174 2160 2160 2147 2147 2147 2133 2133 2133 2120 2107 2107 2107 2107 2107 2107 2095 2095 2095 2095 2082 2082 2082 2082 2069 2069 2069 2069 2069 2069 2057 2057 2045 2057 2045 2033 2033 2033 2021 2021 2021 2021 2021 1998 1998 1998 1986 1998 1986 1986 1986 1964 1952 1952 1952 1952 1952 1952 1952 1952 1952 1941 1941 1931 1931 1920 1920 1909 1909 1909 1899 1899 1899 1888 1888 1888 1888 1878 1878 1878 1878 1878 1868 1868 1868 1868 1858 1858 1858 1858 1848 1848 1848 1838 1838 1828 1828 1828 1828 1819 1819 1819 1809 1800 1790 1790 1790 1790 1790 1790 1781 1781 1781 1781 1772 1772 1763 1763 1754 1754 1754 1745 1745 1745 1745 1745 1745 1745 0 0 0 0 0 0 0 0 0 0 0 0 0 0 0 0 0 0 0 0 0 0 0 0 0 0 0 0 0 0 0 0 0 0 0 0 0 0 0 0
    1615 1615 1615 1622 1622 1622 1622 1622 1622 1630 1630 1638 1638 1645 1638 1638 1645 1645 1645 1645 1645 1653 1653 1653 1661 1661 1661 1669 1669 1677 1677 1677 1677 1677 1686 1686 1686 1686 1694 1694 1694 1702 1702 1702 1702 1702 1702 1702 1711 1711 1711 1711 1719 1719 1728 1728 1736 1736 1745 1745 1745 1745 1745 1745 1745 1745 1745 1745 1754 1754 1754 1754 1763 1763 1763 1781 1781 1781 1781 1790 1790 1790 1790 1790 1790 1790 1790 1790 1800 1800 1809 1800 1809 1809 1809 1819 1819 1819 1819 1828 1828 1828 1828 1828 1828 1828 1848 1848 1858 1858 1858 1858 1858 1858 1858 1858 1868 1868 1868 1868 1868 1868 1868 1878 1878 1878 1878 1888 1899 1899 1899 1899 1899 1909 1909 1909 1920 1920 1931 1931 1931 1941 1941 1941 1941 1952 1952 1952 1952 1964 1964 1964 1952 1952 1952 1964 1964 1964 1975 1986 1975 1986 1986 1986 1986 1986 1998 1998 1998 2009 2009 2009 2009 2009 2021 2021 2021 2021 2033 2033 2033 2033 2033 2033 2033 2033 2033 2045 2057 2057 2057 2057 2069 2082 2082 2082 2082 2082 2082 2095 2095 2095 2095 2095 2095 2095 2095 2107 2107 2120 2120 2133 2133 2133 2147 2147 2147 2147 2147 2147 2160 2160 2174 2187 2187 2187 2187 2187 2187 2187 2201 2201 2215 2215 2230 2230 2230 2230 2230 2230 2244 2244 2244 2244 2244 2244 2259 2259 2259 2259 2259 2274 2274 2274 2289 2289 2304 2304 2304 2304 2320 2320 2320 2320 2335 2335 2351 2367 2367 2351 2367 2351 2351 2351 2335 2335 2335 2335 2320 2320 2320 2320 2304 2304 2304 2304 2304 2289 2289 2289 2274 2274 2259 2259 2259 2244 2244 2244 2244 2244 2230 2230 2215 2201 2201 2187 2187 2187 2187 2187 2174 2174 2160 2160 2147 2147 2147 2133 2133 2133 2133 2133 2120 2120 2107 2107 2107 2107 2107 2107 2095 2095 2082 2082 2082 2082 2069 2082 2069 2069 2057 2057 2057 2057 2045 2057 2045 2045 2033 2033 2021 2021 2009 2021 1998 2003 1998 1986 1998 1986 1986 1986 1986 1964 1952 1952 1952 1952 1952 1952 1952 1952 1952 1941 1941 1931 1931 1920 1920 1909 1909 1899 1899 1899 1888 1888 1888 1888 1888 1878 1878 1878 1878 1868 1868 1868 1868 1868 1858 1858 1858 1858 1858 1858 1848 1848 1838 1828 1828 1828 1828 1819 1819 1819 1809 1800 1800 1790 1790 1790 1790 1781 1781 1781 1781 1781 1772 1772 1772 1763 1763 1754 1754 1754 1754 1745 1745 1745 1745 1745 0 0 0 0 0 0 0 0 0 0 0 0 0 0 0 0 0 0 0 0 0 0 0 0 0 0 0 0 0 0 0 0 0 0 0 0 0 0 0 0
    1615 1615 1622 1622 1622 1622 1622 1622 1630 1630 1630 1638 1645 1645 1645 1645 1645 1645 1645 1645 1653 1653 1653 1653 1661 1661 1661 1661 1661 1669 1677 1677 1677 1677 1686 1686 1686 1686 1686 1694 1694 1694 1694 1686 1694 1702 1702 1702 1711 1711 1711 1711 1719 1719 1728 1728 1736 1736 1745 1745 1745 1745 1745 1745 1745 1749 1749 1749 1754 1754 1754 1754 1754 1763 1763 1781 1781 1781 1781 1790 1790 1790 1790 1790 1790 1790 1790 1800 1800 1800 1800 1800 1800 1809 1809 1819 1819 1819 1819 1828 1828 1828 1828 1828 1838 1848 1848 1848 1848 1858 1858 1858 1858 1858 1858 1858 1868 1868 1868 1868 1868 1878 1878 1878 1878 1878 1878 1888 1888 1899 1899 1899 1899 1909 1909 1909 1920 1920 1931 1931 1931 1931 1931 1941 1941 1952 1952 1952 1952 1952 1964 1952 1952 1952 1952 1964 1964 1964 1975 1975 1975 1986 1986 1986 1986 1998 1998 1998 1998 2009 2009 2021 2021 2021 2021 2021 2021 2021 2033 2033 2033 2033 2033 2033 2033 2045 2045 2045 2057 2057 2057 2057 2069 2069 2069 2082 2082 2082 2082 2095 2095 2095 2095 2095 2095 2095 2095 2095 2107 2107 2107 2120 2133 2133 2147 2147 2133 2147 2147 2147 2160 2160 2174 2187 2187 2187 2187 2187 2187 2201 2201 2201 2201 2215 2215 2215 2230 2230 2230 2230 2244 2244 2244 2244 2244 2244 2259 2259 2259 2259 2259 2259 2274 2274 2289 2289 2304 2304 2320 2320 2320 2320 2335 2335 2335 2351 2351 2367 2351 2351 2351 2351 2351 2351 2335 2351 2351 2335 2320 2320 2320 2320 2320 2320 2304 2304 2289 2274 2274 2274 2274 2274 2259 2259 2244 2244 2244 2244 2230 2230 2230 2215 2215 2201 2201 2187 2187 2187 2187 2187 2174 2174 2160 2160 2147 2147 2147 2147 2133 2133 2133 2133 2120 2120 2107 2107 2107 2107 2107 2095 2095 2095 2082 2082 2069 2069 2069 2069 2057 2057 2057 2057 2057 2057 2045 2045 2045 2033 2033 2021 2021 2009 2009 2009 1998 2009 1998 1998 1998 1986 1986 1986 1986 1964 1964 1952 1952 1952 1952 1952 1952 1952 1952 1941 1941 1931 1920 1920 1920 1909 1909 1899 1899 1899 1899 1899 1888 1888 1888 1878 1878 1878 1878 1878 1868 1868 1868 1858 1858 1858 1858 1858 1848 1848 1838 1838 1828 1828 1828 1828 1828 1819 1819 1819 1809 1800 1800 1790 1790 1790 1790 1790 1781 1781 1781 1781 1781 1772 1772 1763 1754 1754 1754 1754 1754 1745 1745 1745 1745 1745 0 0 0 0 0 0 0 0 0 0 0 0 0 0 0 0 0 0 0 0 0 0 0 0 0 0 0 0 0 0 0 0 0 0 0 0 0 0 0 0
    1615 1615 1622 1622 1622 1622 1630 1630 1630 1630 1638 1638 1638 1645 1645 1645 1645 1645 1645 1645 1653 1653 1661 1661 1661 1661 1661 1661 1661 1669 1677 1677 1677 1677 1686 1686 1686 1686 1686 1694 1694 1694 1694 1694 1694 1702 1702 1702 1711 1711 1711 1719 1719 1719 1728 1728 1736 1736 1745 1745 1745 1745 1745 1745 1745 1754 1754 1754 1754 1754 1754 1754 1754 1763 1763 1772 1781 1781 1781 1781 1781 1790 1790 1790 1790 1790 1800 1800 1800 1800 1809 1809 1809 1809 1819 1819 1819 1819 1828 1828 1828 1828 1828 1838 1838 1848 1848 1848 1848 1848 1858 1858 1858 1858 1858 1868 1868 1868 1868 1868 1868 1878 1878 1878 1878 1878 1878 1888 1888 1899 1899 1899 1899 1899 1909 1909 1909 1920 1920 1920 1931 1931 1941 1941 1941 1952 1952 1952 1952 1952 1952 1952 1952 1952 1952 1964 1975 1975 1975 1975 1986 1986 1986 1986 1986 1998 1998 1998 1998 1998 1998 1998 1998 1998 2009 2021 2021 2021 2021 2033 2033 2033 2033 2033 2033 2033 2045 2045 2045 2057 2057 2057 2057 2069 2069 2082 2082 2082 2082 2095 2095 2095 2095 2095 2095 2095 2095 2095 2095 2107 2107 2120 2133 2133 2147 2147 2147 2147 2147 2160 2160 2160 2174 2187 2187 2187 2187 2187 2187 2201 2201 2201 2201 2215 2215 2215 2215 2230 2230 2230 2244 2244 2244 2244 2244 2244 2244 2259 2259 2259 2259 2259 2274 2274 2274 2289 2304 2304 2320 2320 2320 2320 2335 2335 2351 2351 2367 2367 2351 2351 2351 2351 2351 2351 2335 2351 2351 2335 2320 2320 2304 2320 2304 2304 2304 2304 2304 2289 2274 2274 2274 2274 2259 2259 2244 2244 2244 2244 2230 2230 2215 2215 2215 2201 2187 2187 2187 2187 2187 2187 2174 2160 2160 2160 2147 2147 2147 2147 2133 2133 2133 2133 2120 2120 2120 2107 2120 2107 2107 2095 2095 2095 2082 2082 2069 2069 2057 2057 2057 2057 2057 2057 2057 2057 2045 2045 2045 2033 2033 2033 2021 2021 2009 2021 2003 2009 1998 1998 1998 1986 1986 1986 1975 1964 1964 1952 1952 1952 1952 1952 1952 1952 1941 1941 1931 1931 1920 1920 1920 1909 1909 1909 1899 1899 1899 1899 1899 1888 1888 1878 1878 1878 1868 1868 1868 1868 1868 1858 1858 1858 1858 1848 1848 1848 1828 1838 1828 1828 1828 1828 1828 1819 1819 1819 1809 1809 1800 1800 1790 1790 1790 1781 1781 1781 1781 1781 1772 1772 1763 1763 1754 1754 1754 1754 1754 1749 1745 1745 1745 1736 0 0 0 0 0 0 0 0 0 0 0 0 0 0 0 0 0 0 0 0 0 0 0 0 0 0 0 0 0 0 0 0 0 0 0 0 0 0 0 0
    1615 1615 1615 1622 1622 1622 1622 1630 1630 1630 1638 1638 1638 1645 1645 1645 1645 1645 1645 1645 1653 1653 1653 1653 1653 1661 1661 1661 1669 1677 1677 1677 1677 1677 1677 1677 1686 1686 1686 1694 1694 1694 1694 1694 1694 1694 1702 1702 1711 1711 1719 1719 1719 1719 1728 1728 1736 1736 1736 1745 1745 1745 1745 1745 1745 1745 1745 1745 1754 1754 1754 1754 1763 1763 1763 1781 1781 1781 1781 1781 1781 1781 1781 1790 1790 1790 1800 1800 1800 1800 1809 1809 1809 1819 1819 1819 1819 1828 1828 1828 1828 1828 1828 1828 1838 1838 1848 1848 1848 1848 1858 1858 1858 1858 1858 1868 1868 1868 1868 1868 1868 1878 1878 1878 1878 1888 1888 1888 1888 1888 1899 1899 1899 1899 1899 1909 1909 1909 1920 1920 1931 1941 1941 1941 1941 1952 1952 1952 1952 1952 1952 1952 1952 1964 1964 1964 1975 1975 1975 1975 1986 1986 1986 1986 1998 1998 1998 1998 1998 1998 1998 1998 1998 1998 2009 2021 2021 2021 2021 2021 2033 2033 2033 2033 2033 2033 2033 2045 2045 2045 2057 2057 2069 2069 2069 2069 2082 2082 2082 2082 2082 2095 2095 2095 2095 2095 2095 2095 2095 2107 2107 2120 2133 2133 2133 2133 2133 2133 2147 2147 2160 2160 2160 2174 2174 2174 2174 2187 2187 2187 2201 2201 2201 2215 2215 2215 2215 2230 2230 2230 2230 2230 2244 2244 2244 2259 2259 2259 2259 2259 2259 2259 2274 2274 2274 2289 2304 2304 2320 2320 2320 2320 2335 2335 2335 2351 2351 2351 2351 2351 2351 2351 2351 2351 2335 2335 2335 2320 2320 2320 2320 2304 2304 2304 2304 2304 2304 2289 2289 2274 2274 2274 2259 2259 2244 2244 2244 2230 2215 2215 2215 2201 2201 2187 2187 2187 2187 2187 2187 2187 2174 2160 2160 2160 2147 2147 2147 2147 2147 2133 2133 2133 2120 2120 2120 2107 2120 2095 2107 2095 2095 2082 2082 2082 2069 2069 2057 2057 2057 2057 2057 2057 2057 2045 2045 2045 2045 2033 2033 2021 2021 2021 2021 2009 2009 2009 1998 1986 1998 1986 1986 1975 1975 1964 1964 1952 1952 1952 1952 1952 1941 1941 1941 1931 1920 1920 1920 1920 1920 1909 1909 1909 1899 1899 1899 1899 1888 1888 1888 1878 1878 1878 1868 1868 1868 1868 1868 1858 1858 1858 1848 1848 1848 1838 1828 1828 1828 1828 1828 1828 1819 1819 1819 1819 1809 1809 1800 1800 1790 1790 1790 1781 1781 1781 1781 1781 1772 1772 1763 1763 1754 1754 1754 1754 1754 1754 1745 1745 1745 1736 0 0 0 0 0 0 0 0 0 0 0 0 0 0 0 0 0 0 0 0 0 0 0 0 0 0 0 0 0 0 0 0 0 0 0 0 0 0 0 0
    1607 1615 1615 1622 1622 1622 1622 1630 1630 1630 1630 1638 1638 1645 1645 1645 1645 1645 1653 1653 1653 1653 1653 1653 1653 1653 1661 1661 1669 1669 1669 1677 1677 1677 1677 1677 1686 1686 1686 1694 1694 1694 1694 1694 1694 1694 1702 1702 1711 1711 1719 1719 1719 1719 1728 1728 1728 1736 1736 1745 1745 1745 1745 1745 1745 1745 1745 1745 1754 1754 1754 1754 1763 1763 1763 1781 1781 1781 1781 1781 1781 1781 1781 1790 1790 1800 1800 1800 1800 1800 1809 1809 1809 1819 1819 1819 1828 1828 1828 1828 1828 1828 1828 1828 1838 1838 1848 1848 1848 1848 1858 1858 1858 1858 1858 1868 1868 1868 1868 1868 1878 1878 1878 1888 1888 1888 1888 1888 1888 1888 1888 1888 1899 1899 1899 1909 1909 1909 1920 1920 1931 1931 1941 1941 1941 1952 1952 1952 1952 1952 1952 1952 1952 1964 1964 1964 1975 1975 1975 1986 1986 1986 1986 1986 1998 1998 1998 1998 1998 1998 1998 1998 1998 1998 2009 2009 2009 2009 2021 2021 2033 2033 2033 2033 2033 2033 2045 2045 2045 2057 2057 2057 2057 2069 2069 2069 2069 2069 2082 2082 2082 2095 2095 2095 2095 2095 2095 2107 2107 2107 2107 2120 2120 2120 2133 2133 2133 2133 2147 2147 2160 2160 2160 2160 2174 2174 2174 2187 2187 2187 2187 2201 2201 2201 2215 2215 2215 2230 2230 2230 2230 2230 2244 2244 2244 2259 2259 2259 2259 2259 2259 2259 2274 2274 2274 2289 2304 2304 2320 2320 2320 2335 2335 2335 2335 2351 2351 2351 2351 2351 2351 2351 2351 2351 2351 2335 2335 2320 2320 2320 2304 2304 2304 2304 2304 2304 2304 2274 2274 2274 2274 2259 2259 2259 2244 2244 2244 2244 2230 2215 2201 2201 2201 2201 2187 2187 2187 2187 2187 2187 2174 2174 2160 2160 2147 2147 2147 2147 2133 2133 2133 2133 2120 2120 2107 2107 2107 2107 2107 2095 2095 2082 2082 2082 2069 2069 2057 2082 2057 2057 2057 2057 2057 2045 2045 2045 2045 2033 2021 2021 2021 2009 2009 2009 2009 2009 1998 1998 1986 1986 1986 1975 1975 1964 1964 1952 1952 1952 1952 1952 1941 1952 1941 1931 1931 1920 1920 1920 1920 1909 1909 1909 1899 1899 1899 1899 1899 1888 1878 1878 1878 1878 1868 1868 1868 1868 1858 1858 1848 1848 1838 1838 1838 1828 1828 1828 1828 1828 1828 1828 1819 1819 1819 1819 1809 1809 1800 1800 1790 1790 1790 1790 1781 1781 1781 1781 1772 1772 1772 1763 1763 1754 1754 1754 1754 1754 1749 1745 1745 1745 0 0 0 0 0 0 0 0 0 0 0 0 0 0 0 0 0 0 0 0 0 0 0 0 0 0 0 0 0 0 0 0 0 0 0 0 0 0 0 0
    1607 1615 1615 1622 1622 1622 1622 1630 1630 1630 1630 1630 1638 1645 1645 1645 1645 1653 1653 1653 1653 1653 1653 1653 1653 1653 1661 1653 1661 1669 1669 1677 1677 1677 1677 1677 1686 1686 1686 1694 1694 1694 1694 1694 1694 1702 1702 1702 1711 1711 1719 1719 1719 1719 1728 1728 1728 1728 1728 1736 1745 1745 1745 1745 1745 1745 1749 1745 1754 1754 1754 1754 1763 1763 1763 1772 1781 1781 1781 1781 1781 1781 1781 1790 1790 1790 1800 1800 1800 1800 1809 1809 1809 1819 1819 1828 1828 1828 1828 1828 1828 1828 1828 1828 1838 1838 1838 1838 1848 1848 1848 1858 1858 1858 1868 1868 1868 1868 1868 1868 1868 1878 1878 1878 1888 1888 1888 1888 1888 1888 1888 1888 1899 1899 1899 1899 1899 1909 1909 1909 1920 1920 1931 1941 1941 1952 1952 1952 1952 1952 1952 1952 1952 1964 1964 1975 1975 1975 1975 1975 1975 1975 1975 1986 1986 1998 1998 1998 1998 1998 1998 1998 1998 1998 2009 2009 2021 2021 2021 2033 2033 2033 2033 2033 2033 2033 2033 2045 2045 2045 2057 2057 2057 2069 2069 2069 2082 2082 2082 2095 2095 2095 2095 2095 2095 2107 2107 2107 2107 2107 2133 2120 2120 2120 2133 2133 2133 2133 2147 2147 2147 2147 2160 2160 2174 2174 2174 2174 2187 2187 2187 2201 2201 2201 2201 2215 2215 2215 2215 2230 2230 2230 2230 2244 2244 2259 2259 2259 2259 2259 2259 2259 2259 2274 2274 2289 2304 2304 2320 2320 2320 2320 2335 2335 2335 2351 2351 2351 2351 2351 2351 2351 2351 2351 2335 2335 2335 2320 2320 2320 2320 2304 2304 2304 2304 2289 2274 2274 2274 2274 2259 2259 2259 2259 2244 2244 2244 2244 2215 2215 2201 2201 2201 2187 2187 2187 2187 2187 2187 2174 2174 2174 2174 2160 2147 2147 2147 2147 2147 2133 2133 2133 2133 2133 2120 2107 2095 2107 2095 2095 2095 2082 2082 2082 2069 2069 2069 2069 2057 2057 2057 2057 2045 2045 2045 2045 2045 2033 2021 2021 2021 2009 2009 2009 2009 2009 1998 1998 1998 1986 1986 1986 1975 1964 1964 1952 1964 1952 1952 1952 1952 1952 1941 1931 1941 1931 1931 1931 1920 1920 1920 1909 1909 1909 1899 1899 1888 1888 1878 1878 1878 1878 1868 1868 1868 1868 1858 1858 1858 1848 1848 1848 1838 1838 1828 1828 1828 1828 1828 1828 1819 1819 1819 1819 1809 1809 1800 1790 1790 1790 1790 1790 1781 1781 1781 1781 1781 1772 1772 1763 1763 1754 1754 1754 1754 1754 1754 1745 1745 1745 0 0 0 0 0 0 0 0 0 0 0 0 0 0 0 0 0 0 0 0 0 0 0 0 0 0 0 0 0 0 0 0 0 0 0 0 0 0 0 0
    1615 1622 1622 1630 1630 1630 1630 1630 1630 1638 1638 1638 1645 1645 1653 1653 1653 1661 1661 1661 1661 1661 1661 1661 1661 1661 1661 1661 1669 1677 1677 1677 1686 1686 1686 1686 1686 1686 1686 1694 1694 1694 1694 1694 1702 1702 1702 1711 1711 1711 1719 1719 1719 1719 1728 1728 1728 1728 1728 1736 1745 1745 1745 1745 1745 1749 1754 1749 1754 1754 1754 1754 1754 1763 1763 1772 1772 1781 1781 1781 1781 1790 1790 1790 1790 1790 1800 1800 1800 1800 1809 1809 1809 1819 1819 1828 1828 1828 1828 1828 1828 1828 1828 1828 1828 1838 1838 1838 1838 1848 1848 1858 1858 1858 1868 1868 1868 1868 1868 1868 1868 1878 1878 1878 1888 1888 1888 1888 1888 1888 1888 1888 1899 1899 1899 1909 1909 1909 1909 1920 1920 1931 1931 1941 1941 1952 1952 1952 1952 1952 1952 1952 1964 1964 1964 1975 1975 1975 1975 1975 1986 1975 1975 1986 1998 1998 1998 1998 1998 1998 1998 1998 1998 1998 2009 2009 2021 2021 2021 2021 2033 2033 2033 2033 2033 2033 2033 2045 2045 2057 2057 2057 2057 2069 2069 2069 2082 2082 2082 2095 2095 2095 2107 2107 2095 2107 2107 2107 2107 2107 2107 2120 2133 2133 2133 2133 2133 2133 2147 2147 2147 2160 2160 2160 2174 2174 2174 2174 2187 2187 2187 2201 2201 2201 2201 2215 2215 2215 2215 2215 2230 2230 2230 2244 2244 2244 2244 2259 2259 2259 2259 2259 2259 2274 2274 2289 2304 2304 2304 2320 2320 2320 2335 2335 2351 2351 2351 2351 2351 2351 2351 2351 2351 2351 2351 2335 2320 2320 2320 2320 2320 2304 2304 2304 2304 2304 2274 2274 2274 2259 2259 2259 2259 2259 2244 2244 2244 2244 2215 2215 2201 2201 2201 2187 2187 2187 2187 2187 2187 2174 2174 2174 2174 2160 2147 2147 2147 2147 2147 2133 2133 2133 2133 2133 2120 2107 2107 2095 2095 2095 2095 2082 2082 2082 2069 2069 2082 2082 2057 2069 2057 2057 2057 2045 2045 2045 2033 2033 2021 2033 2021 2009 2009 2009 2009 2009 1998 1998 1998 1998 1998 1986 1975 1964 1964 1952 1952 1952 1952 1952 1952 1941 1941 1941 1941 1931 1931 1931 1931 1931 1931 1909 1909 1909 1909 1909 1899 1888 1878 1878 1878 1868 1868 1868 1868 1868 1858 1858 1858 1858 1848 1848 1848 1838 1838 1828 1828 1828 1828 1828 1819 1819 1819 1819 1809 1809 1800 1790 1790 1790 1790 1790 1790 1781 1781 1781 1781 1772 1772 1763 1754 1754 1754 1754 1754 1754 1754 1745 1745 1745 0 0 0 0 0 0 0 0 0 0 0 0 0 0 0 0 0 0 0 0 0 0 0 0 0 0 0 0 0 0 0 0 0 0 0 0 0 0 0 0
    1615 1622 1622 1630 1630 1630 1630 1630 1638 1638 1638 1638 1645 1645 1653 1653 1653 1661 1661 1661 1661 1661 1661 1661 1661 1661 1669 1669 1669 1677 1677 1677 1686 1686 1686 1686 1694 1694 1694 1694 1702 1702 1702 1702 1711 1711 1719 1719 1719 1719 1728 1728 1728 1728 1728 1728 1736 1728 1736 1745 1745 1749 1749 1749 1749 1754 1754 1754 1754 1754 1754 1754 1763 1763 1763 1772 1772 1772 1772 1781 1781 1781 1781 1790 1790 1790 1800 1800 1800 1809 1809 1819 1819 1819 1828 1828 1828 1828 1828 1828 1828 1828 1828 1828 1828 1828 1838 1838 1838 1848 1848 1858 1858 1858 1868 1868 1868 1868 1878 1878 1878 1878 1878 1878 1888 1888 1888 1888 1888 1899 1888 1899 1899 1899 1899 1909 1909 1909 1909 1920 1920 1931 1941 1941 1941 1952 1952 1952 1952 1952 1952 1952 1952 1964 1964 1964 1964 1975 1975 1975 1986 1986 1986 1998 1998 1998 1998 1998 1998 1998 1998 1998 1998 1998 2009 2009 2009 2021 2021 2033 2033 2033 2033 2033 2033 2033 2033 2045 2045 2045 2057 2057 2057 2069 2069 2069 2082 2082 2082 2095 2095 2095 2095 2095 2095 2095 2107 2107 2107 2107 2120 2120 2133 2133 2133 2133 2133 2133 2147 2147 2147 2147 2160 2160 2160 2160 2174 2174 2174 2187 2187 2187 2187 2201 2201 2201 2201 2201 2201 2215 2215 2230 2230 2244 2244 2244 2244 2244 2259 2259 2259 2259 2259 2274 2274 2289 2304 2304 2304 2320 2320 2320 2335 2335 2351 2351 2351 2351 2351 2351 2351 2351 2351 2351 2351 2351 2335 2320 2320 2320 2304 2304 2304 2304 2304 2304 2289 2274 2259 2259 2259 2259 2259 2259 2244 2244 2244 2244 2230 2215 2215 2201 2201 2201 2201 2187 2187 2201 2187 2187 2187 2174 2174 2160 2147 2147 2147 2147 2147 2147 2147 2133 2133 2133 2120 2120 2107 2095 2095 2095 2095 2082 2082 2082 2082 2082 2069 2069 2069 2069 2069 2057 2057 2045 2045 2045 2033 2033 2033 2021 2021 2009 2009 2009 2009 1998 1998 1998 1998 1986 1986 1975 1975 1964 1964 1952 1952 1952 1952 1952 1941 1941 1941 1941 1941 1931 1931 1931 1931 1931 1931 1920 1909 1909 1909 1909 1899 1888 1878 1878 1868 1868 1868 1868 1868 1868 1858 1868 1858 1848 1848 1848 1838 1838 1828 1828 1819 1819 1819 1819 1819 1819 1819 1819 1809 1809 1800 1790 1790 1790 1790 1790 1790 1781 1781 1781 1772 1772 1763 1763 1754 1754 1754 1754 1754 1754 1754 1749 1749 1749 0 0 0 0 0 0 0 0 0 0 0 0 0 0 0 0 0 0 0 0 0 0 0 0 0 0 0 0 0 0 0 0 0 0 0 0 0 0 0 0
    1615 1615 1622 1622 1630 1630 1630 1630 1630 1638 1638 1638 1645 1645 1653 1653 1653 1661 1661 1661 1661 1661 1661 1661 1661 1661 1661 1669 1669 1677 1677 1677 1686 1686 1686 1686 1686 1694 1694 1694 1694 1694 1702 1702 1711 1711 1711 1711 1719 1719 1719 1719 1728 1728 1728 1728 1728 1736 1736 1745 1745 1754 1754 1754 1754 1763 1763 1763 1763 1763 1763 1763 1763 1763 1772 1781 1772 1781 1781 1790 1790 1790 1800 1800 1800 1800 1809 1809 1819 1819 1828 1828 1828 1828 1828 1828 1838 1828 1828 1828 1838 1838 1838 1838 1838 1838 1848 1848 1848 1848 1858 1858 1858 1868 1868 1878 1878 1878 1878 1888 1888 1888 1888 1899 1899 1899 1909 1909 1899 1909 1909 1909 1909 1909 1909 1920 1920 1920 1931 1931 1941 1941 1952 1952 1952 1952 1964 1964 1964 1964 1964 1964 1964 1975 1975 1975 1986 1986 1986 1998 1998 1998 1998 2003 2003 2003 2003 2003 1998 2003 2003 2003 2009 2009 2009 2009 2009 2021 2021 2033 2033 2033 2033 2033 2033 2033 2033 2045 2045 2045 2057 2057 2069 2069 2069 2069 2082 2082 2082 2095 2095 2095 2095 2095 2095 2095 2107 2107 2107 2107 2120 2120 2133 2133 2133 2133 2133 2147 2147 2147 2147 2160 2160 2160 2160 2174 2174 2187 2187 2187 2187 2187 2187 2187 2201 2201 2201 2201 2201 2215 2230 2230 2230 2244 2244 2244 2244 2259 2259 2259 2259 2259 2259 2274 2274 2289 2304 2304 2304 2304 2320 2320 2320 2320 2335 2335 2335 2335 2335 2351 2351 2367 2351 2351 2351 2335 2335 2320 2320 2320 2304 2304 2304 2304 2304 2304 2289 2274 2259 2259 2259 2259 2259 2259 2244 2244 2244 2244 2230 2201 2215 2201 2201 2201 2201 2187 2187 2187 2187 2187 2187 2174 2174 2174 2160 2147 2147 2147 2147 2147 2133 2133 2133 2133 2120 2120 2107 2095 2095 2095 2095 2082 2082 2082 2082 2082 2069 2069 2069 2069 2069 2057 2057 2045 2045 2045 2033 2033 2033 2021 2021 2021 2009 2009 2009 2003 2003 2003 2003 1998 1998 1986 1986 1975 1975 1964 1964 1964 1964 1964 1952 1952 1941 1941 1941 1941 1941 1941 1941 1931 1931 1931 1920 1920 1920 1909 1909 1888 1888 1878 1878 1878 1878 1878 1878 1878 1878 1878 1868 1868 1858 1858 1858 1848 1838 1838 1838 1838 1838 1828 1828 1828 1828 1828 1819 1819 1809 1800 1800 1790 1790 1790 1790 1790 1790 1790 1781 1781 1772 1772 1763 1763 1763 1763 1763 1763 1754 1754 1754 1754 0 0 0 0 0 0 0 0 0 0 0 0 0 0 0 0 0 0 0 0 0 0 0 0 0 0 0 0 0 0 0 0 0 0 0 0 0 0 0 0
    1615 1615 1622 1622 1630 1630 1630 1630 1630 1630 1638 1645 1645 1653 1653 1653 1653 1661 1661 1661 1661 1661 1661 1661 1661 1661 1669 1669 1669 1677 1677 1686 1686 1686 1686 1686 1686 1686 1694 1694 1694 1702 1702 1711 1711 1711 1711 1719 1719 1719 1719 1719 1728 1728 1728 1728 1736 1736 1736 1745 1745 1754 1754 1754 1754 1754 1754 1763 1763 1763 1763 1763 1763 1772 1772 1781 1781 1781 1790 1790 1790 1800 1800 1800 1800 1809 1819 1819 1819 1819 1828 1828 1828 1828 1828 1828 1838 1828 1828 1828 1838 1838 1838 1838 1838 1848 1848 1848 1848 1858 1858 1868 1868 1868 1868 1878 1878 1878 1878 1878 1888 1888 1888 1888 1899 1899 1899 1909 1909 1909 1909 1909 1909 1909 1920 1920 1920 1920 1920 1931 1931 1941 1941 1941 1952 1952 1964 1964 1964 1964 1964 1964 1964 1975 1975 1975 1986 1986 1986 1998 1998 1998 1998 2009 2009 2009 2009 2009 2003 2009 2009 2009 2009 2009 2009 2021 2033 2033 2033 2045 2045 2045 2045 2045 2045 2045 2045 2045 2057 2057 2069 2069 2082 2082 2082 2082 2082 2082 2082 2082 2095 2095 2095 2095 2107 2107 2107 2107 2120 2120 2120 2120 2133 2133 2133 2133 2133 2147 2147 2147 2160 2160 2160 2160 2160 2174 2174 2174 2187 2187 2187 2187 2187 2187 2201 2201 2201 2201 2201 2201 2215 2230 2230 2230 2244 2244 2244 2244 2244 2259 2259 2259 2259 2274 2289 2289 2304 2304 2304 2304 2304 2304 2320 2320 2320 2335 2335 2335 2335 2351 2351 2351 2351 2335 2335 2335 2320 2320 2320 2320 2304 2304 2304 2289 2304 2289 2289 2274 2259 2259 2259 2259 2259 2259 2244 2244 2244 2230 2230 2215 2215 2201 2201 2201 2201 2187 2187 2187 2187 2174 2174 2174 2174 2174 2160 2160 2147 2147 2147 2147 2133 2133 2133 2120 2120 2107 2107 2095 2095 2095 2107 2095 2095 2095 2095 2095 2095 2095 2082 2082 2082 2069 2057 2057 2057 2045 2045 2045 2045 2045 2033 2033 2021 2021 2021 2009 2009 2009 2009 1998 1986 1975 1975 1975 1964 1964 1964 1964 1964 1952 1952 1952 1952 1941 1941 1941 1941 1941 1931 1931 1931 1920 1920 1920 1909 1909 1909 1888 1888 1888 1878 1878 1878 1878 1878 1878 1878 1878 1868 1868 1868 1858 1848 1848 1838 1838 1838 1828 1828 1828 1828 1828 1828 1828 1828 1819 1809 1800 1800 1800 1800 1790 1790 1790 1790 1790 1781 1781 1772 1772 1772 1763 1763 1763 1763 1763 1763 1754 1754 1754 0 0 0 0 0 0 0 0 0 0 0 0 0 0 0 0 0 0 0 0 0 0 0 0 0 0 0 0 0 0 0 0 0 0 0 0 0 0 0 0
    1615 1622 1622 1622 1630 1630 1630 1630 1630 1638 1638 1638 1645 1653 1653 1653 1653 1653 1661 1653 1653 1661 1653 1661 1661 1661 1669 1669 1669 1677 1677 1677 1686 1686 1686 1686 1686 1694 1694 1694 1694 1702 1702 1702 1711 1711 1711 1711 1719 1719 1719 1719 1728 1728 1728 1728 1728 1736 1736 1745 1745 1754 1754 1754 1754 1754 1754 1763 1763 1763 1763 1763 1763 1763 1772 1781 1781 1790 1790 1790 1800 1800 1800 1800 1809 1809 1819 1819 1819 1828 1828 1828 1828 1828 1828 1828 1838 1828 1828 1828 1838 1838 1838 1838 1838 1848 1848 1848 1858 1858 1868 1868 1868 1868 1868 1878 1878 1878 1878 1878 1888 1888 1888 1888 1899 1899 1899 1899 1909 1909 1909 1909 1909 1909 1909 1920 1920 1920 1920 1931 1931 1931 1941 1941 1952 1952 1964 1964 1964 1964 1964 1964 1964 1964 1975 1975 1986 1986 1986 1998 1986 1998 1998 1998 2009 1998 2009 2009 2009 2009 2009 2009 2009 2021 2021 2033 2033 2033 2045 2045 2045 2045 2045 2057 2045 2045 2045 2045 2057 2057 2057 2069 2069 2082 2082 2095 2095 2095 2095 2107 2107 2107 2107 2107 2107 2120 2120 2120 2133 2133 2133 2133 2147 2147 2147 2147 2160 2160 2160 2174 2174 2174 2174 2187 2187 2187 2201 2201 2201 2201 2201 2201 2201 2215 2215 2215 2215 2215 2215 2230 2230 2244 2244 2244 2259 2259 2274 2274 2274 2274 2274 2274 2274 2289 2289 2304 2320 2320 2320 2320 2320 2320 2320 2335 2335 2335 2351 2351 2367 2367 2384 2367 2367 2367 2351 2351 2335 2335 2335 2335 2320 2320 2320 2320 2304 2304 2289 2289 2274 2274 2274 2274 2274 2259 2259 2259 2259 2244 2230 2230 2230 2215 2215 2215 2201 2201 2201 2201 2201 2201 2187 2187 2187 2187 2174 2174 2174 2160 2160 2147 2147 2147 2133 2133 2120 2120 2120 2107 2107 2107 2107 2095 2095 2095 2095 2095 2095 2082 2082 2082 2069 2069 2057 2057 2057 2057 2045 2045 2045 2033 2033 2021 2021 2021 2009 2009 2009 2009 2009 1998 1998 1998 1986 1975 1964 1964 1964 1964 1964 1952 1952 1952 1952 1941 1941 1941 1941 1941 1931 1931 1931 1920 1920 1920 1909 1909 1899 1888 1888 1888 1878 1878 1878 1878 1878 1868 1868 1868 1868 1868 1858 1858 1848 1848 1838 1838 1838 1838 1828 1828 1828 1828 1828 1828 1828 1819 1809 1800 1800 1790 1790 1790 1790 1790 1790 1790 1781 1781 1772 1772 1772 1763 1763 1763 1754 1763 1754 1754 1754 1754 0 0 0 0 0 0 0 0 0 0 0 0 0 0 0 0 0 0 0 0 0 0 0 0 0 0 0 0 0 0 0 0 0 0 0 0 0 0 0 0
    1615 1622 1622 1622 1630 1630 1630 1630 1630 1638 1638 1638 1645 1653 1653 1653 1661 1661 1661 1661 1661 1661 1661 1661 1661 1661 1669 1669 1677 1686 1686 1686 1686 1686 1686 1686 1686 1686 1694 1694 1694 1702 1702 1702 1711 1711 1719 1719 1719 1719 1719 1719 1728 1728 1728 1728 1736 1736 1745 1745 1745 1745 1754 1754 1754 1754 1754 1763 1763 1763 1763 1763 1763 1763 1772 1781 1781 1790 1790 1800 1800 1800 1800 1800 1809 1809 1809 1819 1819 1819 1819 1828 1828 1828 1828 1828 1828 1828 1828 1828 1828 1838 1838 1838 1838 1838 1848 1848 1858 1858 1868 1868 1868 1868 1878 1878 1878 1878 1878 1878 1888 1888 1888 1888 1899 1899 1899 1899 1909 1909 1909 1909 1909 1909 1909 1920 1920 1920 1920 1931 1931 1941 1941 1952 1952 1952 1964 1964 1964 1964 1964 1964 1964 1964 1975 1986 1986 1986 1986 1998 1986 1998 1998 1998 2009 1998 1998 2009 2009 2009 2009 2009 2021 2021 2021 2033 2033 2033 2033 2033 2033 2045 2045 2045 2045 2045 2045 2045 2045 2057 2057 2069 2069 2082 2082 2095 2095 2095 2095 2107 2107 2107 2107 2107 2107 2107 2107 2120 2120 2133 2147 2147 2147 2147 2147 2160 2160 2160 2160 2160 2174 2174 2174 2187 2187 2187 2187 2201 2201 2201 2201 2215 2215 2215 2215 2215 2215 2230 2230 2230 2244 2244 2244 2259 2259 2259 2274 2274 2274 2274 2274 2289 2274 2304 2304 2304 2304 2320 2320 2320 2320 2320 2320 2335 2335 2335 2351 2351 2367 2384 2367 2367 2367 2367 2351 2351 2351 2335 2335 2335 2320 2320 2320 2304 2304 2304 2289 2289 2289 2274 2274 2274 2259 2259 2259 2259 2259 2244 2230 2230 2230 2215 2215 2201 2201 2201 2201 2201 2187 2187 2187 2187 2187 2187 2174 2174 2174 2160 2160 2147 2147 2147 2133 2133 2120 2120 2107 2107 2107 2107 2095 2095 2095 2095 2095 2095 2082 2082 2082 2082 2069 2057 2057 2057 2057 2057 2045 2045 2045 2033 2033 2021 2021 2009 2009 2009 2009 2009 2009 1998 1998 1998 1986 1975 1975 1964 1964 1964 1964 1964 1952 1952 1952 1952 1952 1941 1941 1931 1931 1931 1920 1920 1920 1920 1909 1909 1909 1899 1888 1888 1878 1878 1878 1878 1868 1868 1868 1868 1868 1868 1868 1848 1848 1848 1848 1838 1838 1838 1828 1828 1828 1828 1828 1819 1819 1819 1809 1800 1800 1790 1790 1790 1790 1790 1790 1781 1781 1781 1772 1772 1763 1763 1763 1763 1763 1763 1763 1754 1754 1754 0 0 0 0 0 0 0 0 0 0 0 0 0 0 0 0 0 0 0 0 0 0 0 0 0 0 0 0 0 0 0 0 0 0 0 0 0 0 0 0
    1622 1622 1622 1622 1630 1630 1630 1630 1630 1638 1638 1638 1645 1653 1653 1653 1661 1661 1661 1661 1661 1661 1661 1661 1661 1661 1669 1669 1677 1677 1677 1677 1686 1686 1686 1686 1686 1686 1694 1694 1702 1702 1702 1711 1711 1711 1719 1719 1719 1719 1719 1719 1728 1728 1728 1728 1736 1745 1745 1745 1749 1749 1754 1754 1754 1754 1754 1763 1763 1763 1763 1763 1763 1763 1772 1772 1781 1790 1790 1800 1800 1800 1800 1800 1800 1809 1809 1809 1809 1819 1819 1828 1828 1828 1828 1828 1828 1828 1828 1828 1828 1828 1838 1838 1838 1848 1848 1848 1858 1868 1868 1868 1868 1868 1878 1878 1878 1878 1878 1878 1888 1888 1888 1888 1888 1899 1899 1899 1899 1909 1909 1909 1909 1909 1909 1920 1920 1920 1920 1920 1920 1941 1941 1952 1952 1964 1964 1952 1964 1964 1964 1964 1964 1964 1975 1975 1986 1986 1986 1998 1998 1998 1998 1998 2009 2003 2009 2009 2009 2009 2009 2009 2021 2021 2021 2021 2021 2021 2033 2033 2033 2033 2033 2045 2045 2045 2057 2057 2045 2057 2057 2069 2082 2082 2095 2095 2095 2095 2095 2095 2095 2095 2107 2107 2107 2107 2107 2120 2120 2133 2133 2147 2147 2147 2147 2147 2160 2160 2160 2160 2174 2174 2174 2187 2187 2187 2187 2201 2201 2201 2201 2215 2215 2215 2215 2215 2215 2230 2230 2244 2244 2244 2244 2244 2259 2259 2259 2274 2274 2274 2274 2274 2289 2289 2289 2304 2304 2320 2320 2320 2320 2320 2320 2335 2335 2335 2335 2351 2351 2367 2367 2367 2351 2367 2351 2351 2351 2351 2335 2335 2320 2320 2320 2320 2304 2304 2304 2289 2289 2289 2274 2274 2274 2259 2259 2259 2259 2244 2230 2230 2230 2215 2215 2201 2201 2201 2201 2201 2187 2187 2187 2187 2187 2174 2174 2160 2160 2160 2147 2147 2147 2133 2133 2120 2120 2120 2107 2107 2107 2107 2107 2095 2095 2095 2095 2082 2082 2082 2082 2069 2057 2057 2057 2057 2057 2045 2045 2045 2045 2033 2033 2021 2021 2009 2009 2009 2009 2009 2009 1998 1998 1986 1986 1986 1975 1975 1964 1964 1964 1964 1952 1952 1941 1941 1941 1931 1931 1931 1931 1931 1920 1920 1909 1909 1909 1909 1899 1899 1888 1888 1878 1878 1878 1878 1868 1868 1868 1868 1868 1858 1858 1848 1848 1848 1848 1838 1838 1838 1828 1828 1828 1828 1819 1819 1819 1809 1809 1800 1800 1800 1790 1790 1790 1790 1790 1781 1781 1781 1772 1772 1763 1763 1763 1763 1754 1754 1754 1754 1754 1754 0 0 0 0 0 0 0 0 0 0 0 0 0 0 0 0 0 0 0 0 0 0 0 0 0 0 0 0 0 0 0 0 0 0 0 0 0 0 0 0
    1622 1622 1622 1622 1630 1630 1630 1630 1630 1630 1638 1638 1638 1645 1653 1653 1661 1661 1661 1653 1653 1653 1653 1661 1661 1661 1669 1669 1677 1677 1677 1677 1686 1686 1686 1686 1686 1694 1694 1694 1702 1702 1702 1702 1711 1711 1719 1719 1719 1719 1719 1719 1728 1728 1728 1728 1736 1745 1745 1745 1754 1754 1754 1754 1754 1754 1754 1763 1763 1763 1763 1763 1763 1772 1772 1781 1790 1790 1790 1790 1800 1800 1800 1800 1809 1809 1809 1819 1819 1819 1828 1828 1828 1828 1828 1828 1828 1828 1828 1828 1828 1838 1838 1838 1838 1848 1858 1858 1858 1868 1868 1868 1878 1878 1878 1878 1878 1878 1878 1878 1878 1888 1888 1888 1888 1899 1899 1899 1909 1909 1909 1909 1909 1909 1909 1920 1920 1920 1920 1920 1920 1941 1952 1952 1952 1964 1964 1964 1964 1964 1964 1964 1964 1964 1964 1975 1986 1986 1998 1998 1998 1998 1998 1998 2009 2009 2009 2009 2009 2009 2009 2009 2009 2009 2009 2021 2021 2021 2033 2033 2033 2033 2033 2045 2033 2045 2033 2045 2045 2057 2057 2069 2082 2082 2095 2095 2095 2095 2095 2095 2095 2095 2095 2107 2107 2107 2107 2120 2120 2133 2133 2147 2147 2147 2147 2147 2160 2160 2160 2160 2174 2174 2174 2187 2187 2187 2201 2201 2201 2201 2201 2215 2215 2215 2215 2215 2215 2230 2230 2244 2244 2244 2244 2244 2259 2259 2274 2274 2274 2289 2289 2289 2289 2289 2289 2304 2304 2320 2320 2320 2320 2320 2320 2335 2335 2335 2335 2351 2367 2367 2367 2367 2367 2367 2351 2351 2351 2351 2335 2335 2320 2320 2320 2320 2304 2304 2304 2304 2304 2289 2289 2274 2274 2259 2259 2259 2244 2230 2230 2230 2230 2215 2215 2215 2201 2201 2201 2201 2187 2187 2187 2187 2174 2174 2174 2160 2160 2160 2147 2147 2133 2133 2120 2120 2107 2107 2107 2107 2107 2107 2107 2095 2095 2095 2095 2082 2082 2082 2069 2069 2057 2057 2057 2057 2045 2045 2045 2045 2033 2033 2021 2021 2021 2009 2009 2009 2009 2009 1998 1998 1986 1986 1986 1986 1986 1975 1975 1964 1964 1964 1952 1952 1941 1941 1941 1941 1941 1931 1931 1920 1920 1920 1920 1909 1909 1909 1899 1899 1899 1888 1888 1878 1878 1878 1878 1868 1868 1868 1868 1868 1858 1848 1848 1848 1838 1838 1838 1838 1828 1828 1828 1819 1819 1819 1819 1809 1809 1800 1800 1800 1800 1790 1790 1790 1790 1781 1781 1772 1772 1763 1763 1763 1763 1754 1754 1754 1754 1754 1754 1754 0 0 0 0 0 0 0 0 0 0 0 0 0 0 0 0 0 0 0 0 0 0 0 0 0 0 0 0 0 0 0 0 0 0 0 0 0 0 0 0
    1622 1622 1622 1622 1630 1630 1630 1630 1630 1638 1638 1638 1638 1645 1653 1653 1653 1661 1661 1653 1653 1653 1653 1661 1661 1661 1661 1669 1669 1677 1677 1677 1686 1686 1686 1694 1694 1694 1694 1694 1702 1702 1702 1702 1711 1711 1711 1719 1719 1719 1719 1728 1728 1728 1728 1736 1736 1745 1745 1745 1754 1754 1754 1754 1754 1754 1754 1763 1763 1763 1763 1763 1772 1772 1772 1781 1781 1790 1800 1800 1800 1809 1809 1809 1809 1819 1819 1828 1828 1828 1828 1828 1828 1828 1828 1828 1828 1828 1828 1828 1828 1838 1838 1838 1838 1848 1858 1858 1858 1858 1868 1868 1868 1868 1878 1878 1878 1878 1878 1878 1878 1888 1888 1888 1888 1899 1909 1899 1909 1909 1909 1909 1909 1909 1909 1920 1920 1920 1920 1931 1931 1941 1941 1952 1952 1964 1964 1964 1964 1964 1964 1964 1964 1964 1975 1975 1986 1998 1986 1998 1998 1998 1998 2003 2009 1998 2009 2009 2009 2009 2009 2009 2009 2009 2009 2021 2021 2021 2021 2021 2033 2033 2033 2045 2045 2045 2045 2045 2045 2057 2057 2069 2082 2082 2095 2095 2095 2095 2095 2095 2095 2095 2107 2107 2107 2107 2107 2120 2120 2120 2133 2133 2147 2147 2147 2147 2147 2160 2160 2160 2174 2174 2187 2187 2187 2187 2201 2201 2201 2201 2201 2201 2215 2215 2215 2215 2215 2230 2230 2244 2244 2244 2244 2244 2259 2259 2274 2274 2274 2274 2274 2274 2289 2289 2289 2289 2289 2304 2320 2320 2320 2320 2320 2335 2335 2335 2351 2351 2367 2367 2367 2367 2367 2367 2351 2351 2351 2335 2335 2335 2320 2320 2320 2320 2320 2320 2304 2304 2304 2289 2289 2274 2274 2259 2259 2244 2244 2230 2230 2230 2215 2215 2215 2201 2201 2201 2201 2187 2187 2187 2174 2174 2174 2174 2174 2160 2160 2147 2147 2147 2133 2133 2120 2120 2120 2107 2107 2107 2107 2107 2107 2095 2095 2095 2095 2082 2082 2082 2069 2069 2057 2057 2057 2057 2045 2057 2045 2045 2033 2033 2021 2021 2009 2009 2009 2009 2009 2009 1998 1998 1986 1986 1986 1986 1986 1975 1975 1964 1964 1964 1952 1952 1941 1931 1931 1931 1931 1920 1920 1920 1920 1920 1920 1909 1909 1909 1909 1899 1899 1888 1888 1878 1878 1878 1878 1868 1868 1868 1868 1858 1858 1848 1838 1838 1838 1838 1838 1828 1828 1828 1828 1819 1819 1819 1819 1809 1800 1800 1800 1800 1790 1790 1790 1790 1790 1781 1772 1772 1772 1772 1763 1763 1763 1754 1754 1754 1754 1754 1754 1754 0 0 0 0 0 0 0 0 0 0 0 0 0 0 0 0 0 0 0 0 0 0 0 0 0 0 0 0 0 0 0 0 0 0 0 0 0 0 0 0
    1622 1622 1622 1622 1622 1630 1630 1630 1630 1638 1638 1638 1638 1645 1653 1653 1653 1653 1653 1653 1653 1653 1653 1661 1661 1661 1661 1669 1669 1677 1677 1686 1686 1686 1694 1694 1694 1694 1694 1694 1702 1702 1702 1702 1702 1711 1711 1719 1719 1719 1719 1728 1728 1728 1728 1736 1736 1745 1745 1745 1754 1754 1754 1754 1754 1763 1763 1763 1763 1763 1763 1763 1772 1772 1772 1781 1781 1790 1790 1800 1800 1800 1809 1809 1809 1819 1819 1819 1828 1819 1828 1828 1828 1828 1828 1828 1828 1828 1828 1828 1838 1838 1848 1848 1848 1848 1858 1858 1858 1858 1868 1868 1868 1868 1868 1868 1878 1878 1878 1878 1878 1888 1888 1888 1888 1899 1899 1899 1909 1899 1909 1909 1909 1909 1909 1909 1920 1920 1920 1920 1931 1941 1941 1952 1952 1952 1964 1964 1964 1964 1964 1964 1964 1964 1975 1975 1998 1998 1986 1998 1998 1998 1998 2009 2009 1998 2009 2009 2009 2009 2009 2009 2009 2009 2021 2021 2021 2021 2021 2021 2033 2033 2045 2045 2045 2045 2045 2045 2045 2057 2057 2069 2082 2082 2082 2095 2095 2095 2095 2095 2095 2095 2095 2095 2107 2107 2107 2107 2120 2120 2133 2133 2147 2147 2147 2147 2147 2160 2160 2160 2174 2174 2187 2187 2187 2187 2187 2187 2201 2201 2201 2201 2215 2215 2215 2215 2230 2230 2230 2244 2244 2244 2259 2259 2259 2259 2274 2274 2274 2274 2274 2274 2289 2289 2289 2289 2304 2304 2320 2320 2320 2320 2320 2335 2335 2351 2351 2367 2367 2367 2367 2351 2367 2367 2351 2351 2351 2335 2335 2335 2335 2320 2320 2320 2320 2304 2304 2289 2304 2289 2289 2274 2274 2259 2259 2244 2244 2230 2230 2215 2215 2215 2215 2201 2201 2201 2201 2201 2187 2187 2174 2174 2174 2160 2160 2160 2160 2147 2147 2147 2133 2133 2120 2120 2120 2107 2107 2107 2107 2107 2107 2107 2095 2095 2095 2082 2082 2082 2069 2069 2057 2057 2057 2057 2057 2045 2045 2045 2033 2021 2021 2021 2009 2009 2009 2009 2009 2009 1998 1998 1998 1998 1986 1986 1986 1975 1975 1975 1964 1964 1964 1952 1941 1941 1941 1931 1931 1920 1920 1920 1920 1920 1920 1909 1909 1909 1899 1899 1899 1888 1888 1878 1878 1878 1878 1868 1868 1868 1868 1858 1858 1838 1838 1838 1838 1838 1838 1838 1828 1828 1828 1828 1828 1819 1819 1809 1809 1800 1800 1800 1800 1790 1790 1790 1790 1781 1781 1772 1772 1772 1763 1763 1763 1763 1754 1754 1754 1754 1754 1754 0 0 0 0 0 0 0 0 0 0 0 0 0 0 0 0 0 0 0 0 0 0 0 0 0 0 0 0 0 0 0 0 0 0 0 0 0 0 0 0
    1622 1622 1622 1622 1630 1630 1630 1630 1630 1638 1638 1638 1638 1645 1645 1645 1653 1653 1653 1653 1653 1653 1661 1661 1661 1661 1661 1669 1669 1677 1686 1686 1686 1694 1694 1694 1694 1694 1694 1694 1702 1702 1702 1702 1702 1711 1711 1719 1719 1719 1719 1728 1728 1728 1728 1736 1736 1745 1745 1749 1754 1754 1754 1754 1754 1763 1763 1763 1763 1763 1763 1763 1763 1763 1772 1772 1781 1790 1790 1790 1800 1800 1800 1800 1809 1809 1819 1819 1819 1819 1819 1828 1828 1828 1828 1828 1828 1828 1828 1828 1838 1838 1848 1848 1848 1848 1848 1858 1858 1858 1858 1858 1868 1868 1868 1868 1878 1878 1878 1878 1878 1878 1888 1888 1888 1888 1899 1899 1899 1909 1909 1909 1909 1909 1909 1909 1909 1920 1920 1920 1931 1941 1941 1952 1952 1952 1952 1952 1964 1964 1964 1964 1964 1964 1975 1975 1986 1986 1986 1998 1998 1998 1998 1998 1998 1998 2009 2009 2009 2009 2009 2009 2009 2021 2021 2021 2021 2021 2033 2033 2033 2045 2045 2045 2045 2045 2045 2045 2057 2057 2057 2069 2082 2082 2082 2095 2095 2095 2095 2095 2095 2095 2095 2107 2107 2107 2107 2107 2107 2120 2133 2133 2147 2147 2147 2147 2160 2160 2160 2174 2174 2174 2174 2187 2187 2187 2187 2187 2201 2201 2201 2215 2215 2215 2215 2215 2230 2230 2244 2244 2244 2259 2259 2259 2259 2259 2274 2274 2274 2274 2274 2274 2289 2289 2289 2304 2304 2320 2320 2320 2320 2320 2335 2335 2335 2351 2351 2367 2367 2367 2367 2367 2367 2367 2351 2351 2351 2335 2335 2335 2335 2320 2320 2320 2320 2320 2304 2304 2304 2304 2289 2274 2274 2274 2259 2259 2244 2230 2230 2215 2215 2215 2215 2215 2201 2201 2201 2201 2187 2187 2174 2174 2174 2174 2160 2160 2160 2147 2147 2147 2147 2133 2120 2120 2120 2107 2107 2107 2107 2107 2107 2107 2095 2095 2095 2095 2095 2095 2069 2057 2057 2057 2057 2057 2045 2045 2045 2045 2045 2021 2021 2009 2009 2009 2009 2009 2009 1998 1998 1998 1998 1986 1986 1986 1986 1975 1975 1975 1964 1964 1964 1952 1941 1941 1941 1931 1931 1920 1920 1920 1909 1909 1909 1909 1909 1909 1899 1899 1899 1888 1888 1878 1878 1878 1878 1868 1868 1868 1858 1858 1858 1838 1838 1838 1838 1828 1828 1828 1828 1828 1828 1819 1819 1809 1800 1800 1800 1800 1800 1800 1800 1790 1790 1790 1781 1781 1772 1772 1772 1763 1763 1763 1763 1754 1754 1754 1754 1754 1754 1754 0 0 0 0 0 0 0 0 0 0 0 0 0 0 0 0 0 0 0 0 0 0 0 0 0 0 0 0 0 0 0 0 0 0 0 0 0 0 0 0
    1622 1622 1622 1622 1622 1622 1630 1630 1630 1630 1630 1638 1638 1638 1638 1645 1653 1653 1653 1653 1653 1653 1661 1661 1661 1661 1661 1669 1677 1677 1677 1686 1686 1686 1694 1694 1694 1694 1694 1694 1702 1702 1702 1702 1702 1702 1711 1719 1719 1719 1719 1728 1728 1728 1728 1736 1745 1745 1745 1754 1754 1754 1754 1754 1763 1763 1763 1763 1763 1763 1763 1763 1763 1763 1772 1781 1790 1790 1790 1800 1800 1800 1800 1800 1809 1809 1809 1819 1819 1819 1819 1828 1828 1828 1828 1828 1828 1828 1828 1828 1838 1838 1848 1848 1848 1848 1848 1858 1858 1858 1858 1858 1868 1868 1868 1868 1878 1878 1878 1878 1878 1878 1878 1888 1888 1888 1888 1899 1899 1909 1909 1909 1909 1909 1909 1909 1909 1920 1920 1920 1931 1941 1941 1952 1952 1952 1952 1964 1952 1964 1964 1964 1964 1964 1964 1975 1986 1986 1986 1986 1986 1986 1998 1998 1998 1998 2009 2009 2009 2009 2009 2009 2009 2009 2021 2021 2021 2021 2033 2033 2033 2045 2045 2045 2045 2045 2045 2045 2057 2057 2057 2069 2082 2082 2082 2095 2095 2095 2095 2095 2095 2095 2095 2095 2095 2107 2107 2107 2120 2133 2133 2147 2147 2147 2147 2147 2160 2160 2160 2160 2174 2174 2174 2174 2174 2187 2187 2187 2201 2201 2201 2201 2215 2215 2215 2215 2230 2244 2244 2244 2244 2259 2259 2259 2259 2259 2259 2274 2274 2274 2274 2274 2289 2289 2289 2304 2304 2320 2320 2320 2320 2335 2335 2335 2351 2351 2351 2367 2367 2367 2367 2367 2367 2367 2351 2351 2351 2335 2335 2335 2335 2335 2320 2320 2320 2320 2320 2304 2304 2289 2274 2274 2274 2274 2259 2259 2244 2230 2230 2215 2215 2215 2215 2215 2201 2201 2201 2201 2187 2187 2174 2174 2174 2160 2160 2160 2160 2147 2147 2147 2133 2133 2120 2120 2120 2107 2107 2107 2107 2107 2107 2107 2095 2095 2095 2082 2082 2095 2069 2069 2057 2057 2057 2057 2057 2045 2045 2057 2045 2045 2021 2021 2009 2009 2009 2009 2009 1998 1998 1998 1998 1998 1986 1986 1975 1975 1975 1964 1964 1964 1964 1952 1941 1941 1941 1931 1931 1920 1920 1920 1909 1909 1909 1909 1909 1909 1909 1899 1899 1888 1878 1878 1878 1878 1878 1868 1868 1868 1858 1858 1858 1848 1838 1838 1838 1838 1838 1828 1828 1828 1828 1819 1819 1809 1809 1800 1800 1800 1800 1800 1800 1800 1790 1790 1790 1781 1781 1772 1772 1763 1763 1763 1763 1763 1754 1754 1754 1754 1754 1754 0 0 0 0 0 0 0 0 0 0 0 0 0 0 0 0 0 0 0 0 0 0 0 0 0 0 0 0 0 0 0 0 0 0 0 0 0 0 0 0
    1622 1622 1622 1622 1622 1630 1630 1630 1630 1630 1638 1638 1638 1638 1638 1645 1653 1653 1653 1653 1653 1661 1661 1661 1661 1661 1661 1669 1669 1677 1677 1686 1686 1694 1694 1694 1694 1694 1694 1694 1694 1702 1702 1702 1702 1702 1711 1719 1719 1719 1719 1728 1728 1728 1736 1736 1745 1745 1749 1754 1754 1754 1754 1754 1754 1763 1763 1763 1763 1763 1763 1763 1763 1763 1772 1781 1790 1790 1790 1800 1800 1800 1800 1800 1809 1819 1819 1828 1828 1828 1828 1828 1828 1828 1828 1828 1828 1828 1828 1828 1838 1848 1848 1848 1858 1848 1858 1858 1858 1858 1858 1858 1868 1868 1868 1868 1878 1878 1878 1878 1878 1878 1878 1878 1888 1888 1888 1899 1899 1909 1909 1909 1909 1909 1909 1909 1909 1920 1920 1931 1931 1941 1941 1952 1952 1941 1941 1952 1952 1952 1964 1964 1964 1964 1975 1975 1975 1986 1986 1986 1986 1986 1998 1998 2003 1998 2009 2009 2009 2009 2009 2009 2009 2009 2009 2021 2009 2021 2033 2033 2033 2045 2045 2045 2045 2045 2045 2045 2045 2057 2057 2057 2082 2082 2082 2095 2095 2095 2095 2095 2095 2095 2095 2095 2107 2107 2107 2107 2120 2133 2133 2133 2147 2147 2147 2147 2147 2160 2160 2160 2174 2174 2174 2187 2187 2187 2187 2201 2201 2201 2201 2215 2215 2215 2215 2215 2215 2230 2230 2244 2244 2259 2259 2259 2259 2259 2259 2274 2274 2274 2274 2274 2289 2289 2289 2304 2304 2304 2320 2320 2320 2320 2320 2335 2351 2351 2351 2367 2367 2367 2367 2351 2351 2351 2335 2351 2335 2335 2335 2335 2335 2335 2320 2320 2320 2320 2320 2304 2304 2289 2274 2274 2274 2274 2259 2259 2244 2230 2230 2230 2215 2215 2215 2215 2215 2201 2201 2201 2201 2187 2174 2174 2174 2160 2160 2160 2147 2147 2147 2147 2133 2120 2120 2107 2107 2107 2107 2107 2107 2107 2107 2107 2095 2095 2082 2082 2082 2095 2069 2069 2057 2057 2057 2057 2057 2045 2045 2057 2045 2045 2009 2009 2009 2009 2009 2009 2009 2009 1998 1998 1998 1998 1998 1986 1975 1975 1975 1964 1964 1952 1952 1941 1941 1941 1941 1941 1931 1920 1920 1920 1909 1909 1909 1909 1909 1909 1909 1899 1899 1888 1878 1878 1878 1878 1868 1868 1868 1868 1858 1858 1858 1848 1838 1838 1838 1838 1828 1828 1828 1828 1828 1828 1819 1809 1809 1800 1800 1800 1800 1800 1800 1790 1790 1790 1790 1781 1781 1772 1772 1763 1763 1763 1763 1763 1754 1754 1754 1754 1754 1754 0 0 0 0 0 0 0 0 0 0 0 0 0 0 0 0 0 0 0 0 0 0 0 0 0 0 0 0 0 0 0 0 0 0 0 0 0 0 0 0</data></depth>
</opencv_storage>
