<?xml version="1.0"?>
<opencv_storage>
<depth type_id="opencv-matrix">
  <rows>41</rows>
  <cols>480</cols>
  <dt>w</dt>
  <data>
    2021 2021 2021 2021 2021 2021 2021 2021 2021 2021 2021 2021 2009 2009 2009 1986 1986 1998 1986 1986 1986 1986 1986 1986 1986 1986 1986 1986 1998 1986 1986 1986 1986 1986 1986 1986 1986 1986 1986 1986 1986 1975 1975 1975 1975 1975 1975 1975 1986 1975 1975 1975 1975 1975 1975 1975 1975 1975 1975 1964 1964 1952 1952 1952 1952 1941 1941 1952 1952 1941 1941 1941 1941 1941 1931 1931 1931 1931 1931 1931 1931 1931 1931 1931 1920 1931 1920 1920 1920 1909 1909 1899 1899 1899 1899 1899 1899 1899 1899 1899 1899 1899 1899 1888 1888 1888 1888 1888 1888 1888 1888 1878 1878 1878 1878 1878 1878 1878 1878 1868 1868 1858 1858 1858 1858 1858 1858 1858 1858 1848 1848 1848 1848 1848 1848 1848 1848 1848 1848 1848 1848 1838 1828 1828 1828 1819 1819 1819 1819 1819 1819 1819 1819 1809 1819 1819 1819 1819 1819 1809 1809 1809 1809 1809 1790 1790 1790 1781 1790 1790 1790 1790 1790 1790 1790 1790 1781 1781 1781 1781 1781 1781 1781 1781 1781 1781 1781 1781 1772 1772 1772 1772 1772 1772 1772 1772 1763 1763 1763 1763 1763 1763 1763 1754 1763 1754 1754 1745 1745 1745 1745 1745 1736 1736 1736 1736 1736 1736 1736 1736 1736 1728 1728 1728 1728 1728 1728 1719 1728 1719 1719 1719 1719 1719 1711 1711 1711 1711 1702 1702 1702 1702 1702 1702 1702 1702 1702 1702 1694 1694 1694 1694 1694 1694 1694 1694 1694 1694 1694 1686 1686 1677 1677 1677 1677 1669 1669 1669 1669 1669 1669 1669 1669 1661 1669 1669 1669 1661 1661 1661 1661 1661 1653 1653 1653 1653 1645 1645 1645 1645 1645 1645 1645 1638 1638 1638 1638 1638 1630 1630 1630 1630 1622 1622 1622 1622 1622 1622 1615 1615 1615 1615 1615 1615 1615 1615 1615 1607 1615 1607 1607 1607 1607 1607 1607 1607 1600 1607 1600 1600 1600 1600 1600 1592 1592 1592 1585 1585 1585 1585 1585 1585 1585 1585 1585 1585 1578 1578 1578 1578 1578 1571 1571 1571 1571 1563 1563 1563 1563 1563 1563 1563 1563 1563 1563 1563 1556 1556 1556 1556 1556 1556 1556 1549 1556 1549 1549 1542 1542 1542 1542 1542 1542 1542 1542 1542 1536 1536 1536 1529 1529 1529 1529 1529 1529 1522 1522 1522 1522 1515 1515 1515 1515 1515 1509 1509 1509 1502 1502 1502 1502 1496 1496 1496 1496 1496 1496 1496 1496 1496 1496 1489 1489 1483 1483 1483 1477 1477 1477 1477 1477 1470 1470 1470 1470 1470 1470 1470 1470 1470 1470 1470 1454 0 0 0 0 0 0 0 0 0 0 0 0 0 0 0 0 0 0 0 0 0 0 0 0 0 0 0 0 0 0 0 0 0 0 0 0 0
    2021 2021 2021 2021 2021 2021 2021 2021 2021 2021 2021 2021 2009 2009 2009 1998 1998 1998 1998 1986 1986 1986 1986 1986 1986 1986 1998 1998 1998 1998 1986 1986 1986 1986 1986 1998 1998 1998 1998 1986 1986 1986 1986 1986 1975 1975 1975 1975 1975 1975 1975 1975 1975 1975 1975 1975 1975 1975 1964 1964 1964 1952 1952 1952 1952 1952 1952 1952 1952 1941 1941 1941 1941 1941 1941 1931 1931 1931 1931 1931 1931 1931 1920 1920 1920 1920 1920 1920 1920 1920 1920 1909 1909 1899 1899 1899 1899 1899 1899 1899 1899 1899 1899 1888 1888 1888 1888 1888 1888 1888 1888 1878 1878 1878 1878 1878 1888 1878 1878 1878 1868 1858 1868 1858 1858 1858 1858 1858 1858 1858 1848 1848 1848 1848 1848 1848 1848 1848 1848 1848 1848 1838 1838 1828 1828 1828 1828 1819 1819 1819 1819 1819 1819 1809 1819 1819 1819 1819 1819 1819 1809 1819 1809 1809 1790 1790 1790 1781 1790 1790 1790 1790 1790 1781 1790 1781 1781 1781 1781 1781 1781 1781 1781 1772 1772 1772 1772 1772 1772 1772 1772 1772 1781 1772 1772 1772 1763 1763 1763 1763 1763 1763 1763 1754 1763 1754 1754 1745 1745 1745 1745 1745 1745 1745 1736 1736 1736 1736 1736 1736 1736 1728 1728 1736 1728 1728 1728 1728 1728 1719 1719 1719 1719 1719 1711 1711 1711 1711 1702 1702 1702 1702 1702 1702 1702 1702 1702 1702 1702 1694 1694 1694 1694 1694 1694 1686 1694 1686 1694 1686 1686 1677 1677 1677 1677 1669 1669 1669 1669 1669 1669 1669 1669 1661 1661 1661 1661 1661 1653 1653 1661 1661 1653 1653 1653 1653 1645 1645 1645 1645 1645 1638 1638 1638 1638 1638 1638 1638 1630 1630 1622 1622 1622 1622 1622 1615 1615 1615 1615 1615 1615 1615 1615 1615 1615 1615 1615 1615 1615 1615 1607 1607 1600 1600 1600 1600 1592 1600 1600 1592 1592 1592 1592 1585 1585 1585 1585 1585 1585 1585 1585 1585 1585 1585 1585 1578 1578 1578 1578 1578 1578 1571 1571 1571 1571 1563 1563 1563 1563 1563 1563 1563 1563 1563 1563 1563 1556 1556 1556 1556 1556 1556 1549 1549 1556 1549 1549 1549 1549 1542 1549 1542 1542 1536 1536 1536 1536 1536 1529 1529 1529 1529 1529 1529 1522 1522 1522 1522 1522 1515 1515 1515 1515 1515 1509 1509 1502 1502 1502 1502 1502 1502 1496 1496 1496 1496 1496 1496 1496 1489 1489 1489 1489 1483 1483 1483 1483 1483 1483 1483 1483 1477 1477 1477 1470 1470 1470 1470 1470 1470 1470 1470 1462 0 0 0 0 0 0 0 0 0 0 0 0 0 0 0 0 0 0 0 0 0 0 0 0 0 0 0 0 0 0 0 0 0 0 0 0 0
    2033 2021 2021 2033 2009 2021 2021 2021 2021 2021 2021 2021 2021 2009 2009 1998 1986 1986 1986 1986 1986 1986 1986 1986 1986 1986 1986 1986 1998 1986 1986 1986 1986 1986 1986 1986 1986 1986 1986 1986 1986 1986 1986 1975 1975 1975 1975 1975 1975 1975 1975 1975 1975 1975 1975 1975 1975 1975 1964 1964 1964 1964 1964 1952 1952 1952 1952 1952 1952 1941 1941 1941 1931 1931 1931 1931 1931 1931 1931 1931 1931 1931 1920 1920 1920 1920 1920 1920 1920 1920 1920 1920 1909 1909 1899 1899 1899 1899 1899 1899 1899 1899 1899 1899 1899 1899 1899 1899 1888 1888 1888 1878 1878 1878 1878 1878 1878 1878 1878 1868 1868 1868 1868 1858 1858 1858 1858 1858 1858 1858 1848 1848 1848 1848 1848 1848 1848 1848 1848 1848 1848 1838 1838 1828 1828 1828 1828 1819 1819 1819 1819 1819 1819 1819 1819 1819 1819 1819 1819 1819 1819 1819 1809 1819 1790 1790 1790 1781 1790 1790 1790 1790 1800 1790 1790 1790 1781 1790 1781 1781 1781 1781 1781 1781 1781 1781 1772 1781 1772 1772 1772 1772 1772 1772 1772 1772 1763 1763 1754 1754 1763 1754 1754 1754 1754 1745 1754 1745 1745 1745 1745 1745 1745 1745 1736 1736 1736 1736 1736 1728 1728 1728 1728 1728 1728 1728 1728 1728 1719 1719 1719 1719 1719 1719 1711 1711 1711 1711 1711 1702 1702 1702 1702 1702 1702 1702 1702 1702 1694 1694 1694 1694 1694 1694 1694 1694 1694 1694 1694 1686 1677 1677 1677 1677 1669 1669 1669 1669 1669 1669 1669 1669 1669 1669 1669 1669 1661 1661 1661 1661 1661 1661 1661 1653 1653 1653 1645 1645 1645 1638 1638 1638 1638 1638 1638 1638 1638 1638 1630 1630 1622 1622 1622 1622 1615 1615 1615 1615 1615 1615 1615 1615 1615 1615 1615 1615 1615 1615 1615 1615 1615 1607 1607 1607 1607 1607 1600 1600 1600 1592 1592 1585 1592 1585 1592 1585 1585 1585 1585 1585 1585 1585 1585 1585 1585 1578 1578 1578 1578 1578 1578 1571 1571 1571 1571 1563 1563 1556 1556 1556 1556 1556 1563 1563 1563 1563 1556 1556 1556 1556 1556 1556 1549 1549 1549 1549 1549 1549 1549 1549 1549 1542 1542 1542 1536 1536 1536 1536 1529 1529 1529 1529 1529 1522 1522 1515 1515 1515 1515 1515 1515 1515 1515 1515 1515 1502 1502 1502 1502 1502 1502 1502 1496 1496 1496 1496 1496 1496 1496 1489 1489 1489 1483 1483 1483 1483 1483 1483 1483 1483 1483 1477 1470 1470 1470 1470 1470 1470 1470 1470 1470 1470 1470 0 0 0 0 0 0 0 0 0 0 0 0 0 0 0 0 0 0 0 0 0 0 0 0 0 0 0 0 0 0 0 0 0 0 0 0 0
    2033 2033 2033 2033 2021 2021 2021 2021 2033 2033 2021 2021 2021 2009 2009 1998 1986 1986 1986 1986 1986 1986 1986 1986 1986 1986 1986 1998 1986 1986 1986 1986 1986 1986 1986 1986 1986 1986 1986 1986 1975 1975 1975 1975 1975 1975 1975 1975 1975 1975 1975 1975 1975 1975 1975 1964 1975 1964 1964 1952 1952 1952 1964 1952 1952 1952 1952 1952 1952 1941 1941 1941 1931 1931 1931 1931 1931 1931 1931 1931 1920 1931 1920 1920 1920 1920 1920 1920 1920 1920 1920 1909 1909 1909 1899 1899 1899 1899 1899 1899 1899 1888 1899 1899 1899 1899 1888 1888 1888 1888 1888 1878 1878 1878 1868 1878 1878 1878 1878 1868 1868 1868 1868 1868 1858 1858 1858 1858 1858 1858 1848 1848 1848 1848 1848 1848 1848 1848 1848 1848 1848 1838 1838 1828 1828 1828 1828 1819 1819 1819 1809 1809 1809 1809 1809 1819 1819 1819 1819 1819 1819 1819 1819 1819 1800 1809 1800 1790 1790 1800 1790 1790 1790 1790 1790 1781 1781 1790 1781 1781 1781 1781 1781 1781 1781 1772 1772 1772 1772 1772 1772 1772 1772 1763 1763 1763 1754 1763 1754 1754 1754 1754 1754 1754 1745 1745 1745 1745 1745 1745 1745 1745 1745 1745 1736 1736 1736 1736 1736 1736 1728 1728 1728 1728 1728 1719 1728 1728 1719 1719 1719 1719 1719 1719 1711 1711 1711 1711 1702 1702 1702 1702 1702 1702 1702 1702 1694 1694 1694 1694 1694 1694 1702 1694 1694 1694 1694 1694 1694 1686 1677 1677 1677 1669 1669 1669 1669 1669 1669 1669 1669 1669 1669 1661 1661 1661 1661 1661 1661 1653 1653 1653 1653 1653 1653 1653 1653 1645 1645 1638 1638 1638 1638 1638 1630 1630 1630 1630 1630 1622 1622 1622 1622 1622 1622 1622 1622 1622 1622 1615 1622 1615 1615 1615 1615 1615 1615 1615 1615 1615 1615 1615 1615 1607 1607 1607 1600 1600 1600 1600 1592 1585 1592 1592 1592 1585 1585 1585 1585 1585 1585 1585 1585 1585 1578 1578 1578 1578 1578 1578 1578 1578 1578 1571 1571 1563 1563 1563 1563 1556 1556 1556 1563 1563 1563 1563 1556 1556 1556 1556 1556 1556 1549 1549 1549 1549 1549 1549 1549 1549 1542 1542 1536 1536 1536 1536 1536 1529 1529 1529 1529 1529 1529 1522 1522 1522 1522 1522 1522 1522 1522 1515 1522 1522 1515 1509 1509 1502 1502 1502 1502 1502 1496 1496 1496 1496 1496 1496 1496 1496 1496 1489 1483 1483 1483 1483 1483 1483 1483 1483 1483 1477 1477 1477 1470 1470 1470 1470 1470 1470 1470 1470 1470 0 0 0 0 0 0 0 0 0 0 0 0 0 0 0 0 0 0 0 0 0 0 0 0 0 0 0 0 0 0 0 0 0 0 0 0 0
    2033 2033 2033 2033 2033 2021 2033 2033 2033 2021 2021 2021 2021 2009 2009 1998 1998 1998 1986 1986 1986 1998 1998 1998 1998 1998 1998 1998 1998 1986 1986 1986 1986 1986 1986 1986 1986 1986 1986 1975 1975 1975 1975 1975 1975 1975 1975 1975 1975 1975 1975 1975 1975 1975 1975 1964 1975 1964 1964 1952 1952 1952 1952 1952 1952 1941 1941 1941 1941 1941 1941 1941 1931 1931 1931 1931 1931 1931 1931 1931 1920 1931 1920 1920 1920 1920 1920 1920 1920 1920 1920 1909 1909 1899 1899 1899 1899 1899 1888 1888 1888 1888 1888 1899 1899 1899 1899 1888 1888 1888 1888 1878 1878 1868 1868 1868 1878 1868 1868 1868 1868 1868 1868 1868 1858 1858 1858 1858 1858 1858 1858 1858 1858 1858 1848 1848 1848 1848 1848 1848 1848 1838 1838 1838 1828 1828 1828 1819 1819 1819 1819 1809 1809 1809 1819 1819 1819 1819 1819 1819 1819 1819 1819 1819 1819 1809 1809 1809 1800 1800 1800 1790 1790 1790 1790 1790 1790 1790 1790 1790 1790 1781 1781 1781 1781 1772 1772 1772 1772 1772 1763 1763 1763 1763 1763 1763 1754 1754 1754 1754 1754 1754 1754 1754 1745 1745 1745 1745 1745 1745 1745 1745 1745 1745 1736 1736 1736 1736 1736 1736 1728 1728 1736 1728 1728 1728 1728 1728 1719 1719 1719 1719 1719 1719 1711 1711 1711 1711 1711 1702 1702 1702 1702 1702 1702 1702 1694 1694 1694 1702 1702 1702 1702 1702 1694 1694 1694 1686 1686 1686 1677 1677 1677 1677 1669 1669 1669 1669 1669 1669 1669 1669 1669 1669 1661 1661 1661 1653 1653 1653 1653 1653 1653 1653 1653 1653 1653 1645 1645 1638 1638 1638 1638 1638 1630 1630 1630 1630 1630 1622 1622 1630 1630 1630 1622 1622 1622 1630 1622 1622 1622 1615 1615 1615 1615 1615 1615 1615 1615 1615 1615 1615 1607 1607 1607 1607 1600 1607 1600 1600 1592 1592 1592 1585 1592 1592 1585 1585 1585 1585 1585 1585 1585 1585 1578 1578 1578 1578 1578 1578 1578 1578 1578 1578 1571 1563 1563 1563 1563 1563 1556 1556 1556 1556 1556 1556 1556 1556 1556 1549 1556 1549 1549 1549 1549 1549 1549 1549 1549 1549 1549 1542 1536 1536 1536 1536 1529 1529 1529 1529 1529 1529 1522 1522 1522 1522 1522 1522 1522 1522 1522 1522 1515 1522 1522 1515 1509 1509 1502 1502 1502 1502 1502 1502 1496 1496 1496 1496 1502 1502 1502 1502 1489 1483 1483 1483 1483 1483 1483 1483 1489 1483 1477 1477 1477 1470 1470 1470 1470 1470 1470 1470 1470 0 0 0 0 0 0 0 0 0 0 0 0 0 0 0 0 0 0 0 0 0 0 0 0 0 0 0 0 0 0 0 0 0 0 0 0 0
    2033 2033 2033 2033 2033 2033 2033 2033 2033 2033 2033 2033 2021 2021 1998 1998 1998 1998 1998 1998 1998 1998 1998 1998 1998 1998 1998 1998 1998 1998 1986 1998 1986 1986 1986 1986 1986 1986 1975 1975 1975 1975 1975 1975 1975 1975 1975 1975 1975 1975 1975 1975 1975 1975 1975 1964 1964 1964 1952 1952 1941 1941 1952 1941 1941 1941 1941 1941 1941 1941 1941 1941 1931 1931 1931 1931 1931 1931 1931 1931 1931 1931 1920 1920 1920 1920 1920 1920 1920 1920 1920 1909 1909 1899 1899 1899 1899 1899 1888 1888 1888 1888 1888 1899 1899 1899 1888 1888 1888 1888 1888 1878 1878 1868 1868 1868 1878 1868 1868 1868 1868 1868 1868 1868 1858 1858 1858 1858 1858 1858 1858 1858 1858 1858 1858 1848 1848 1848 1848 1848 1848 1838 1838 1838 1828 1828 1819 1819 1819 1819 1819 1809 1809 1809 1819 1819 1809 1819 1809 1819 1809 1819 1809 1809 1809 1800 1800 1800 1800 1800 1800 1800 1790 1790 1790 1781 1781 1781 1781 1781 1781 1781 1781 1781 1772 1772 1772 1772 1772 1763 1763 1763 1763 1763 1763 1763 1763 1763 1763 1763 1745 1745 1745 1745 1745 1745 1745 1745 1745 1745 1745 1745 1745 1745 1736 1736 1736 1728 1728 1728 1728 1728 1728 1728 1728 1719 1728 1728 1719 1719 1719 1719 1719 1719 1711 1711 1711 1711 1711 1702 1702 1702 1702 1702 1702 1694 1694 1694 1694 1702 1702 1702 1702 1694 1694 1694 1694 1686 1686 1686 1677 1677 1669 1669 1669 1669 1669 1669 1669 1669 1669 1669 1669 1661 1661 1661 1661 1653 1653 1653 1653 1653 1645 1645 1645 1645 1645 1645 1645 1638 1638 1638 1638 1638 1630 1630 1630 1630 1630 1630 1630 1630 1630 1630 1630 1630 1630 1630 1622 1622 1622 1622 1615 1615 1615 1615 1615 1615 1615 1615 1615 1607 1607 1607 1607 1607 1607 1607 1600 1600 1600 1592 1592 1585 1592 1585 1585 1592 1585 1585 1585 1585 1585 1585 1578 1578 1578 1578 1578 1578 1578 1578 1578 1571 1571 1563 1563 1563 1563 1563 1556 1556 1556 1556 1556 1556 1556 1556 1549 1549 1556 1552 1549 1549 1549 1549 1549 1542 1542 1542 1542 1542 1536 1536 1536 1536 1529 1529 1529 1529 1529 1529 1529 1529 1522 1522 1522 1522 1522 1522 1522 1522 1522 1522 1522 1522 1509 1509 1509 1509 1502 1502 1496 1496 1496 1496 1496 1496 1496 1496 1496 1502 1496 1489 1489 1489 1489 1489 1489 1483 1483 1483 1477 1477 1477 1477 1477 1470 1470 1470 1470 1470 1470 0 0 0 0 0 0 0 0 0 0 0 0 0 0 0 0 0 0 0 0 0 0 0 0 0 0 0 0 0 0 0 0 0 0 0 0 0
    2033 2033 2033 2033 2033 2033 2033 2033 2033 2033 2033 2021 2021 2009 2003 1998 1998 1998 1998 1998 1998 1998 1998 1998 1998 1998 1998 1998 1998 1986 1986 1986 1986 1986 1986 1975 1975 1975 1975 1975 1975 1975 1975 1975 1975 1975 1975 1975 1975 1975 1975 1975 1975 1975 1964 1964 1964 1964 1952 1941 1941 1952 1952 1952 1952 1952 1952 1952 1952 1941 1941 1941 1941 1941 1931 1931 1931 1931 1931 1931 1931 1931 1920 1920 1920 1920 1920 1920 1920 1920 1920 1920 1909 1909 1899 1899 1899 1899 1888 1888 1888 1888 1888 1888 1888 1888 1888 1888 1888 1888 1888 1888 1888 1878 1878 1878 1878 1868 1868 1868 1868 1868 1868 1868 1858 1858 1858 1858 1858 1858 1848 1848 1848 1848 1848 1848 1848 1848 1848 1848 1848 1838 1838 1838 1828 1828 1819 1819 1819 1819 1819 1809 1809 1809 1809 1819 1809 1809 1809 1819 1809 1819 1809 1800 1800 1800 1800 1800 1800 1800 1800 1800 1800 1790 1790 1781 1781 1781 1781 1781 1781 1781 1781 1781 1781 1772 1772 1772 1772 1763 1763 1763 1763 1763 1763 1763 1754 1763 1754 1754 1745 1745 1745 1745 1745 1745 1745 1745 1745 1745 1745 1745 1745 1745 1736 1736 1736 1736 1728 1728 1728 1728 1728 1728 1728 1728 1728 1728 1728 1719 1719 1719 1719 1719 1711 1711 1711 1711 1702 1702 1702 1702 1702 1702 1702 1694 1694 1694 1702 1702 1702 1702 1702 1702 1702 1694 1694 1686 1677 1677 1677 1677 1669 1669 1669 1669 1669 1669 1669 1669 1669 1669 1669 1661 1661 1661 1653 1653 1653 1653 1653 1645 1645 1645 1645 1645 1653 1645 1645 1638 1638 1638 1638 1638 1630 1630 1630 1630 1630 1630 1630 1630 1630 1630 1630 1630 1630 1630 1622 1622 1615 1615 1615 1615 1615 1615 1615 1607 1615 1615 1615 1607 1607 1607 1607 1607 1600 1607 1600 1600 1600 1592 1592 1585 1592 1585 1585 1585 1585 1585 1585 1585 1585 1585 1585 1578 1578 1578 1578 1578 1578 1578 1571 1571 1571 1563 1563 1563 1563 1556 1556 1556 1563 1556 1556 1556 1556 1556 1552 1552 1556 1556 1552 1549 1549 1549 1549 1542 1542 1542 1542 1536 1536 1536 1536 1529 1529 1529 1529 1529 1529 1529 1529 1529 1522 1522 1522 1522 1522 1522 1522 1522 1522 1522 1522 1522 1509 1509 1502 1502 1502 1502 1502 1502 1502 1502 1502 1502 1496 1502 1502 1502 1502 1496 1496 1489 1489 1489 1489 1483 1483 1483 1477 1477 1477 1477 1477 1470 1470 1470 1470 1470 1470 0 0 0 0 0 0 0 0 0 0 0 0 0 0 0 0 0 0 0 0 0 0 0 0 0 0 0 0 0 0 0 0 0 0 0 0 0
    2033 2033 2033 2033 2033 2033 2033 2033 2033 2033 2033 2021 2021 2009 2009 1998 1998 1998 1986 1986 1986 1986 1998 1998 1998 1998 1986 1998 1986 1986 1986 1986 1986 1986 1986 1986 1986 1986 1975 1975 1975 1975 1975 1975 1975 1975 1975 1975 1975 1964 1964 1964 1964 1964 1964 1952 1952 1952 1952 1941 1941 1941 1941 1941 1941 1952 1941 1952 1941 1941 1941 1941 1941 1941 1941 1941 1931 1931 1931 1931 1931 1931 1931 1920 1931 1920 1920 1920 1920 1920 1920 1920 1909 1909 1909 1899 1899 1899 1899 1899 1888 1888 1888 1888 1888 1888 1888 1888 1888 1888 1888 1888 1888 1878 1878 1878 1878 1868 1868 1868 1858 1858 1858 1858 1858 1858 1858 1858 1858 1858 1848 1848 1848 1848 1848 1848 1848 1848 1848 1848 1838 1838 1838 1838 1838 1828 1828 1819 1819 1819 1819 1809 1809 1809 1809 1809 1809 1809 1809 1809 1809 1809 1800 1800 1800 1800 1800 1800 1800 1800 1800 1809 1800 1790 1790 1781 1781 1781 1781 1781 1781 1781 1781 1781 1781 1772 1772 1772 1772 1772 1772 1763 1772 1763 1763 1763 1763 1763 1754 1754 1749 1749 1749 1749 1745 1745 1745 1745 1745 1745 1745 1745 1745 1745 1736 1736 1736 1728 1728 1728 1728 1719 1728 1719 1728 1719 1728 1728 1719 1719 1719 1719 1719 1719 1711 1711 1711 1711 1702 1702 1702 1702 1702 1694 1694 1694 1694 1686 1694 1694 1694 1694 1694 1694 1694 1694 1686 1677 1677 1677 1677 1669 1669 1669 1669 1669 1669 1669 1669 1669 1669 1669 1669 1661 1661 1661 1653 1653 1653 1653 1653 1653 1645 1645 1645 1645 1645 1645 1645 1638 1638 1638 1638 1638 1630 1630 1630 1630 1630 1630 1630 1630 1630 1630 1630 1622 1630 1622 1622 1622 1615 1615 1615 1615 1615 1615 1615 1615 1615 1615 1615 1615 1615 1615 1615 1607 1607 1607 1600 1600 1592 1592 1585 1585 1592 1585 1585 1585 1585 1585 1585 1585 1585 1585 1578 1578 1578 1578 1578 1571 1571 1571 1571 1571 1571 1563 1563 1563 1563 1563 1563 1563 1563 1563 1556 1556 1556 1556 1556 1556 1556 1556 1556 1549 1549 1549 1549 1549 1542 1542 1542 1536 1529 1529 1529 1529 1529 1529 1529 1529 1529 1529 1522 1522 1522 1522 1522 1522 1522 1522 1529 1522 1522 1522 1522 1522 1509 1509 1502 1502 1502 1502 1496 1496 1502 1502 1502 1496 1496 1496 1496 1502 1496 1496 1496 1489 1489 1489 1483 1483 1483 1477 1477 1477 1477 1477 1477 1470 1470 1470 1470 1470 1470 0 0 0 0 0 0 0 0 0 0 0 0 0 0 0 0 0 0 0 0 0 0 0 0 0 0 0 0 0 0 0 0 0 0 0 0 0
    2033 2033 2033 2033 2033 2033 2033 2033 2033 2033 2033 2021 2021 2009 2009 1998 1998 1998 1998 1997 1998 1998 1998 1998 1998 1998 1986 1998 1986 1986 1986 1986 1986 1986 1986 1986 1986 1986 1975 1986 1986 1975 1975 1986 1986 1986 1986 1986 1975 1975 1964 1964 1964 1964 1952 1952 1952 1952 1952 1941 1941 1941 1941 1941 1941 1952 1941 1941 1941 1941 1941 1941 1931 1941 1931 1931 1931 1931 1931 1931 1931 1931 1931 1920 1920 1920 1920 1920 1920 1920 1920 1920 1909 1909 1909 1899 1899 1899 1899 1899 1899 1899 1888 1888 1888 1888 1888 1888 1888 1888 1888 1888 1888 1888 1878 1878 1878 1878 1868 1868 1868 1868 1868 1858 1858 1858 1858 1858 1858 1858 1848 1848 1848 1848 1848 1848 1848 1848 1848 1838 1838 1828 1828 1828 1828 1828 1819 1819 1819 1819 1819 1809 1819 1809 1809 1819 1809 1809 1809 1809 1809 1809 1809 1809 1809 1809 1800 1800 1800 1800 1800 1790 1790 1790 1790 1781 1781 1781 1781 1781 1781 1781 1781 1781 1781 1772 1772 1772 1772 1772 1763 1763 1772 1772 1763 1763 1754 1763 1754 1754 1754 1754 1754 1754 1745 1745 1745 1745 1745 1745 1745 1745 1745 1745 1736 1736 1736 1728 1728 1728 1728 1728 1728 1728 1728 1728 1728 1719 1719 1719 1719 1719 1719 1719 1711 1711 1711 1711 1702 1702 1702 1702 1702 1702 1702 1694 1694 1694 1694 1694 1702 1694 1702 1694 1694 1686 1686 1677 1677 1677 1677 1669 1669 1669 1669 1669 1669 1669 1669 1669 1669 1669 1661 1661 1661 1653 1653 1653 1653 1653 1653 1653 1645 1645 1645 1645 1645 1645 1645 1638 1638 1638 1638 1638 1638 1638 1630 1630 1630 1630 1630 1630 1630 1630 1622 1622 1622 1622 1615 1615 1615 1615 1615 1615 1615 1615 1615 1607 1615 1615 1607 1607 1607 1607 1607 1607 1600 1600 1600 1600 1592 1592 1585 1585 1592 1585 1585 1592 1585 1585 1585 1585 1585 1585 1578 1578 1578 1578 1578 1571 1571 1571 1578 1578 1571 1571 1571 1571 1563 1563 1563 1563 1563 1563 1556 1556 1556 1556 1556 1556 1556 1556 1549 1549 1549 1549 1549 1542 1542 1536 1536 1536 1536 1536 1536 1529 1529 1529 1529 1529 1529 1529 1529 1529 1522 1522 1522 1522 1522 1529 1522 1522 1522 1522 1522 1522 1509 1509 1509 1502 1502 1502 1502 1502 1502 1502 1502 1502 1502 1502 1502 1502 1502 1496 1496 1483 1483 1483 1483 1483 1483 1477 1477 1477 1477 1477 1477 1477 1470 1470 1470 1470 1470 0 0 0 0 0 0 0 0 0 0 0 0 0 0 0 0 0 0 0 0 0 0 0 0 0 0 0 0 0 0 0 0 0 0 0 0 0
    2033 2033 2033 2033 2033 2033 2033 2033 2033 2033 2021 2021 2021 2009 2009 1998 1998 1998 1998 2009 1998 1998 1998 1998 1998 1998 1998 1998 1998 1998 1998 1986 1986 1986 1986 1986 1986 1986 1975 1986 1986 1986 1986 1986 1986 1986 1986 1975 1975 1964 1964 1964 1964 1964 1952 1952 1952 1952 1952 1941 1941 1941 1941 1941 1941 1941 1941 1941 1941 1941 1941 1941 1931 1931 1931 1931 1931 1931 1931 1931 1931 1931 1931 1920 1931 1920 1920 1920 1920 1920 1920 1909 1909 1909 1909 1899 1899 1899 1899 1899 1899 1899 1888 1888 1888 1888 1888 1888 1888 1888 1888 1888 1888 1888 1888 1888 1878 1878 1878 1878 1868 1868 1868 1858 1858 1858 1858 1858 1858 1858 1858 1848 1848 1848 1848 1848 1848 1838 1838 1838 1838 1828 1828 1828 1828 1819 1819 1819 1819 1819 1819 1809 1819 1809 1809 1819 1819 1809 1809 1809 1809 1809 1809 1800 1800 1800 1800 1800 1790 1800 1790 1790 1790 1790 1790 1790 1781 1781 1781 1781 1781 1781 1781 1781 1781 1772 1772 1772 1772 1772 1763 1763 1763 1763 1763 1763 1754 1754 1754 1754 1754 1754 1754 1754 1749 1745 1745 1745 1745 1745 1745 1745 1745 1745 1736 1736 1736 1728 1728 1728 1728 1728 1728 1728 1728 1719 1719 1719 1719 1719 1719 1719 1719 1719 1711 1711 1711 1711 1702 1702 1702 1702 1702 1702 1702 1694 1694 1694 1694 1694 1702 1702 1702 1702 1702 1694 1686 1677 1677 1677 1677 1669 1677 1669 1669 1669 1669 1669 1669 1669 1669 1669 1661 1661 1661 1653 1653 1653 1653 1653 1653 1645 1645 1645 1645 1645 1645 1645 1645 1638 1638 1638 1638 1638 1638 1638 1638 1630 1630 1630 1630 1630 1630 1630 1622 1622 1622 1622 1622 1615 1615 1615 1615 1615 1615 1615 1615 1615 1615 1607 1607 1615 1615 1607 1607 1607 1607 1607 1607 1600 1600 1600 1592 1592 1592 1592 1592 1592 1585 1585 1585 1585 1585 1585 1585 1578 1578 1578 1578 1578 1571 1578 1578 1578 1571 1571 1571 1571 1563 1563 1563 1556 1563 1563 1556 1556 1556 1556 1556 1556 1556 1556 1552 1552 1549 1549 1549 1542 1542 1542 1542 1536 1536 1536 1536 1529 1529 1529 1529 1522 1522 1522 1522 1522 1522 1522 1522 1522 1529 1529 1529 1529 1529 1529 1529 1522 1522 1522 1515 1502 1502 1502 1502 1502 1502 1502 1502 1502 1502 1502 1502 1502 1496 1496 1496 1477 1483 1483 1483 1477 1477 1477 1477 1477 1477 1477 1477 1477 1470 1470 1470 1470 1470 0 0 0 0 0 0 0 0 0 0 0 0 0 0 0 0 0 0 0 0 0 0 0 0 0 0 0 0 0 0 0 0 0 0 0 0 0
    2033 2033 2033 2033 2033 2033 2033 2033 2033 2033 2033 2021 2021 2009 2009 2003 2003 2003 2003 2009 2003 2003 1998 1998 1998 1998 1986 1998 1998 1986 1986 1986 1986 1986 1986 1986 1986 1986 1986 1986 1986 1986 1986 1986 1986 1986 1986 1975 1975 1975 1964 1964 1964 1952 1952 1941 1941 1941 1941 1941 1941 1941 1941 1941 1941 1941 1941 1941 1941 1931 1941 1931 1931 1931 1931 1931 1931 1931 1931 1931 1920 1920 1920 1920 1920 1920 1920 1920 1920 1909 1920 1909 1909 1899 1899 1899 1899 1899 1899 1899 1899 1899 1888 1888 1888 1888 1888 1888 1888 1888 1888 1888 1888 1888 1888 1888 1888 1878 1878 1878 1868 1868 1858 1858 1858 1858 1858 1848 1848 1848 1848 1848 1848 1848 1848 1848 1848 1838 1838 1838 1838 1828 1828 1828 1819 1819 1819 1819 1819 1819 1819 1809 1809 1809 1809 1809 1809 1809 1809 1809 1809 1809 1800 1800 1800 1800 1800 1800 1781 1800 1781 1781 1790 1781 1790 1790 1781 1781 1781 1781 1781 1781 1772 1781 1781 1772 1772 1772 1772 1772 1763 1763 1763 1763 1763 1763 1763 1754 1754 1763 1754 1754 1745 1754 1754 1745 1745 1745 1745 1745 1745 1745 1745 1745 1736 1736 1736 1736 1736 1736 1736 1728 1728 1728 1728 1728 1719 1719 1719 1719 1719 1719 1719 1719 1711 1711 1711 1711 1702 1702 1702 1702 1702 1702 1702 1694 1694 1694 1694 1694 1694 1694 1694 1694 1694 1694 1686 1677 1677 1677 1669 1669 1669 1669 1669 1669 1669 1669 1669 1669 1669 1669 1661 1661 1661 1653 1653 1653 1645 1645 1645 1645 1645 1645 1645 1645 1645 1645 1645 1645 1645 1638 1638 1638 1638 1638 1630 1630 1630 1630 1630 1630 1630 1630 1622 1622 1622 1622 1622 1615 1615 1615 1615 1615 1607 1607 1607 1607 1607 1607 1607 1607 1607 1607 1607 1607 1607 1607 1600 1600 1600 1600 1592 1592 1592 1585 1585 1585 1585 1585 1585 1585 1585 1585 1585 1585 1578 1578 1578 1578 1578 1571 1578 1578 1578 1571 1571 1571 1571 1563 1556 1556 1563 1556 1556 1556 1556 1556 1556 1556 1556 1556 1556 1556 1549 1549 1549 1542 1542 1542 1542 1542 1536 1536 1536 1536 1529 1529 1529 1529 1529 1529 1529 1529 1529 1529 1529 1529 1529 1529 1529 1529 1522 1522 1529 1522 1522 1515 1515 1509 1509 1502 1502 1502 1502 1502 1502 1502 1502 1502 1496 1502 1496 1496 1496 1502 1489 1489 1489 1483 1483 1483 1477 1477 1477 1477 1477 1477 1470 1470 1464 1464 1470 0 0 0 0 0 0 0 0 0 0 0 0 0 0 0 0 0 0 0 0 0 0 0 0 0 0 0 0 0 0 0 0 0 0 0 0 0
    2033 2021 2021 2033 2033 2033 2033 2033 2033 2021 2021 2021 2021 2021 2021 2009 2009 2009 2009 2009 2009 2009 1998 1998 1998 1998 1998 1998 1998 1986 1986 1986 1986 1986 1986 1986 1986 1986 1986 1986 1986 1986 1986 1986 1986 1986 1986 1986 1975 1975 1964 1964 1952 1952 1952 1941 1952 1952 1952 1941 1941 1941 1941 1941 1941 1941 1941 1941 1941 1941 1941 1941 1931 1931 1931 1931 1931 1931 1931 1920 1920 1920 1920 1909 1920 1909 1909 1909 1909 1909 1909 1909 1909 1909 1909 1899 1899 1899 1899 1899 1899 1888 1888 1888 1888 1888 1888 1888 1888 1888 1888 1888 1888 1888 1888 1888 1878 1878 1878 1878 1868 1868 1858 1858 1858 1858 1858 1848 1848 1848 1848 1848 1848 1838 1848 1848 1848 1838 1838 1848 1838 1838 1828 1828 1819 1819 1828 1819 1819 1819 1819 1809 1819 1809 1809 1809 1809 1809 1809 1809 1809 1809 1800 1809 1800 1800 1800 1781 1781 1800 1781 1790 1790 1790 1790 1790 1790 1781 1781 1781 1781 1781 1772 1781 1781 1781 1772 1772 1772 1772 1772 1763 1772 1763 1763 1772 1763 1763 1763 1754 1754 1754 1745 1745 1754 1745 1745 1749 1745 1745 1745 1745 1745 1745 1736 1736 1736 1736 1728 1728 1728 1728 1728 1728 1728 1728 1719 1719 1719 1719 1719 1711 1711 1711 1711 1711 1711 1702 1702 1702 1702 1702 1702 1702 1702 1702 1702 1694 1694 1694 1694 1694 1694 1694 1694 1686 1677 1677 1677 1677 1669 1669 1669 1669 1669 1669 1669 1669 1669 1669 1669 1669 1661 1653 1653 1653 1653 1653 1645 1645 1645 1645 1645 1645 1645 1645 1645 1645 1645 1645 1645 1638 1645 1645 1638 1638 1638 1638 1630 1630 1630 1630 1630 1630 1622 1622 1622 1622 1622 1615 1615 1615 1615 1615 1615 1615 1615 1615 1615 1607 1607 1607 1607 1607 1607 1607 1600 1600 1600 1600 1600 1600 1592 1592 1592 1585 1585 1585 1585 1585 1585 1585 1585 1585 1585 1585 1578 1578 1578 1578 1578 1571 1571 1571 1571 1571 1571 1571 1563 1563 1563 1563 1563 1556 1556 1556 1556 1556 1556 1556 1556 1556 1556 1556 1549 1549 1542 1542 1542 1542 1542 1536 1542 1536 1536 1529 1529 1529 1529 1529 1529 1529 1529 1529 1529 1529 1529 1529 1529 1522 1522 1522 1522 1515 1522 1522 1522 1522 1515 1509 1502 1502 1502 1502 1502 1502 1502 1496 1502 1502 1496 1502 1496 1496 1496 1502 1489 1489 1489 1483 1483 1483 1477 1477 1477 1477 1477 1477 1470 1477 1477 1477 1477 0 0 0 0 0 0 0 0 0 0 0 0 0 0 0 0 0 0 0 0 0 0 0 0 0 0 0 0 0 0 0 0 0 0 0 0 0
    2021 2021 2021 2021 2021 2021 2021 2021 2021 2021 2021 2021 2021 2021 2021 2009 2009 2009 2009 2009 2009 1998 1998 1998 1986 1986 1986 1986 1986 1986 1986 1986 1986 1986 1986 1986 1986 1986 1986 1986 1986 1986 1986 1986 1986 1986 1986 1986 1975 1975 1964 1964 1952 1952 1952 1941 1952 1952 1941 1941 1941 1941 1941 1941 1941 1941 1941 1941 1941 1941 1931 1931 1931 1931 1931 1931 1931 1931 1931 1931 1920 1920 1920 1909 1909 1909 1909 1899 1909 1909 1909 1909 1909 1909 1909 1909 1909 1899 1899 1899 1899 1888 1888 1888 1888 1888 1888 1888 1888 1888 1888 1888 1888 1888 1878 1878 1878 1868 1868 1868 1868 1868 1858 1858 1858 1858 1858 1848 1848 1848 1848 1838 1838 1838 1838 1838 1838 1838 1838 1848 1838 1828 1828 1828 1828 1828 1828 1828 1828 1828 1828 1809 1809 1809 1809 1809 1809 1809 1809 1809 1809 1809 1809 1809 1800 1800 1800 1781 1781 1790 1790 1790 1790 1790 1790 1790 1790 1781 1781 1781 1781 1772 1772 1781 1781 1781 1781 1772 1772 1772 1772 1763 1763 1763 1763 1772 1763 1763 1763 1754 1754 1754 1745 1745 1754 1749 1745 1754 1745 1745 1745 1745 1745 1745 1736 1736 1736 1736 1728 1736 1728 1728 1728 1728 1728 1719 1719 1719 1711 1711 1711 1711 1711 1711 1711 1711 1711 1702 1702 1702 1702 1702 1702 1702 1702 1702 1702 1694 1694 1694 1694 1694 1694 1686 1686 1686 1677 1677 1677 1677 1669 1669 1669 1669 1669 1669 1669 1669 1669 1669 1669 1669 1661 1661 1661 1653 1653 1653 1645 1653 1645 1645 1645 1645 1645 1645 1645 1638 1638 1638 1638 1638 1638 1645 1638 1638 1638 1638 1630 1630 1630 1622 1622 1622 1622 1622 1622 1622 1615 1615 1615 1615 1615 1615 1615 1615 1607 1607 1607 1607 1607 1607 1607 1607 1600 1600 1600 1600 1600 1600 1600 1600 1592 1592 1592 1585 1585 1585 1585 1585 1585 1585 1585 1585 1585 1585 1585 1585 1578 1578 1578 1571 1571 1571 1571 1571 1571 1571 1563 1563 1563 1563 1563 1556 1556 1556 1556 1556 1556 1556 1556 1556 1549 1549 1549 1549 1542 1542 1542 1542 1542 1542 1549 1542 1542 1536 1536 1529 1529 1529 1529 1529 1529 1529 1529 1529 1529 1529 1529 1522 1522 1522 1515 1515 1522 1522 1522 1522 1515 1502 1502 1502 1502 1502 1502 1502 1502 1496 1496 1502 1502 1502 1496 1496 1496 1502 1496 1489 1489 1483 1477 1477 1477 1477 1477 1477 1470 1470 1477 1477 1477 1477 1477 0 0 0 0 0 0 0 0 0 0 0 0 0 0 0 0 0 0 0 0 0 0 0 0 0 0 0 0 0 0 0 0 0 0 0 0 0
    2021 2021 2021 2021 2021 2021 2021 2021 2033 2021 2033 2021 2021 2021 2021 2009 2009 2009 2009 2009 2009 1998 1998 1998 1998 1986 1986 1986 1986 1986 1986 1986 1986 1986 1986 1986 1986 1986 1986 1986 1986 1986 1986 1986 1986 1986 1986 1986 1975 1975 1964 1964 1964 1964 1952 1952 1952 1952 1952 1941 1941 1941 1941 1941 1941 1941 1941 1941 1941 1941 1941 1931 1931 1931 1931 1931 1931 1931 1931 1931 1920 1920 1920 1909 1909 1909 1899 1899 1909 1909 1909 1909 1909 1909 1909 1909 1909 1899 1899 1899 1899 1888 1888 1888 1888 1888 1888 1878 1878 1888 1888 1888 1878 1878 1878 1878 1868 1868 1868 1868 1868 1868 1858 1858 1858 1858 1858 1848 1848 1848 1848 1848 1848 1838 1848 1848 1848 1838 1838 1838 1848 1838 1838 1828 1828 1828 1828 1828 1828 1828 1819 1819 1819 1809 1809 1819 1809 1809 1809 1809 1800 1800 1809 1809 1800 1800 1800 1781 1781 1790 1790 1790 1790 1790 1790 1790 1781 1781 1781 1781 1781 1772 1772 1781 1781 1781 1781 1781 1772 1763 1763 1763 1763 1763 1763 1763 1763 1763 1763 1754 1754 1754 1745 1745 1754 1754 1745 1745 1745 1745 1745 1745 1745 1745 1736 1736 1736 1736 1736 1736 1736 1728 1728 1728 1728 1719 1719 1711 1711 1711 1711 1711 1711 1711 1711 1711 1711 1702 1702 1702 1702 1702 1702 1702 1694 1694 1694 1694 1694 1694 1694 1694 1694 1686 1686 1686 1677 1677 1677 1677 1669 1669 1669 1669 1669 1669 1669 1669 1669 1669 1669 1669 1661 1661 1653 1653 1653 1653 1645 1645 1645 1645 1653 1653 1645 1645 1645 1645 1638 1638 1638 1638 1638 1638 1638 1638 1638 1638 1630 1630 1622 1622 1622 1622 1622 1615 1622 1622 1615 1615 1615 1615 1615 1615 1607 1607 1607 1607 1607 1607 1607 1607 1607 1607 1600 1600 1600 1600 1600 1600 1600 1600 1600 1592 1592 1592 1585 1585 1585 1585 1585 1585 1578 1585 1585 1578 1578 1578 1578 1578 1571 1571 1571 1571 1571 1571 1571 1571 1563 1563 1563 1556 1556 1556 1556 1556 1556 1556 1556 1556 1549 1549 1549 1549 1549 1549 1542 1542 1542 1542 1542 1542 1542 1542 1542 1542 1536 1529 1529 1529 1529 1529 1529 1529 1529 1529 1522 1529 1522 1522 1515 1515 1529 1529 1522 1522 1522 1522 1515 1515 1502 1502 1502 1502 1502 1502 1502 1496 1502 1502 1502 1496 1496 1496 1496 1496 1489 1489 1483 1477 1477 1477 1477 1477 1477 1477 1477 1477 1477 1477 1477 1477 1477 0 0 0 0 0 0 0 0 0 0 0 0 0 0 0 0 0 0 0 0 0 0 0 0 0 0 0 0 0 0 0 0 0 0 0 0 0
    2021 2021 2021 2021 2021 2021 2021 2021 2021 2021 2021 2021 2021 2021 2021 2021 2009 2009 2009 2009 2009 2003 1998 1998 1998 1986 1986 1986 1986 1986 1986 1986 1986 1986 1986 1986 1986 1986 1986 1986 1986 1986 1986 1986 1986 1986 1986 1986 1975 1975 1975 1975 1975 1964 1964 1952 1952 1952 1952 1941 1941 1941 1941 1941 1941 1941 1941 1941 1941 1931 1931 1931 1931 1931 1931 1931 1931 1931 1931 1931 1920 1920 1920 1909 1909 1909 1909 1909 1909 1909 1909 1909 1909 1909 1909 1909 1909 1899 1899 1899 1899 1888 1888 1888 1888 1888 1888 1888 1888 1888 1888 1888 1878 1878 1878 1868 1868 1868 1868 1868 1868 1868 1858 1858 1858 1858 1848 1848 1848 1848 1848 1848 1848 1838 1848 1848 1848 1838 1838 1838 1848 1838 1838 1838 1838 1828 1828 1828 1819 1819 1819 1819 1819 1819 1819 1819 1809 1809 1809 1809 1809 1809 1809 1809 1800 1800 1800 1781 1790 1790 1790 1790 1790 1790 1800 1790 1781 1781 1781 1781 1772 1772 1772 1772 1781 1781 1781 1781 1772 1763 1763 1763 1754 1772 1772 1763 1772 1763 1763 1754 1754 1745 1745 1745 1745 1745 1745 1745 1745 1745 1745 1736 1736 1736 1736 1736 1736 1736 1736 1736 1736 1736 1736 1728 1728 1719 1711 1711 1711 1711 1711 1711 1711 1711 1711 1711 1711 1711 1702 1702 1702 1702 1702 1702 1694 1702 1702 1694 1694 1694 1694 1694 1686 1686 1686 1686 1677 1677 1677 1677 1669 1669 1669 1669 1669 1669 1669 1669 1669 1669 1669 1669 1669 1661 1661 1661 1653 1653 1653 1653 1645 1645 1653 1653 1645 1645 1645 1638 1638 1638 1638 1638 1638 1638 1638 1638 1638 1638 1630 1630 1630 1622 1622 1622 1622 1615 1615 1615 1615 1615 1615 1615 1615 1615 1607 1607 1607 1607 1607 1607 1607 1607 1607 1607 1600 1600 1600 1600 1600 1600 1600 1600 1600 1592 1592 1585 1585 1585 1585 1585 1585 1585 1585 1585 1585 1585 1578 1578 1578 1578 1571 1571 1571 1571 1563 1563 1563 1563 1563 1563 1556 1556 1556 1556 1556 1556 1556 1556 1556 1556 1552 1552 1549 1549 1549 1549 1549 1542 1542 1542 1542 1542 1549 1542 1542 1542 1542 1536 1529 1529 1529 1529 1529 1529 1529 1522 1529 1529 1529 1529 1522 1522 1522 1515 1515 1515 1522 1522 1515 1515 1515 1502 1502 1502 1502 1502 1496 1496 1502 1502 1496 1496 1496 1496 1496 1496 1489 1489 1496 1483 1483 1483 1483 1477 1477 1477 1477 1483 1477 1477 1477 1477 0 0 0 0 0 0 0 0 0 0 0 0 0 0 0 0 0 0 0 0 0 0 0 0 0 0 0 0 0 0 0 0 0 0 0 0 0 0
    2021 2021 2021 2021 2021 2021 2021 2021 2021 2021 2021 2021 2021 2021 2021 2021 2021 2009 2009 2009 2009 2009 2003 2003 2003 1998 1998 1998 1998 1998 1998 1998 1998 1998 1998 1986 1986 1986 1986 1986 1975 1975 1975 1986 1975 1986 1975 1975 1975 1975 1975 1975 1975 1964 1964 1952 1952 1952 1941 1941 1941 1941 1941 1941 1941 1941 1941 1941 1941 1931 1931 1931 1931 1931 1931 1931 1931 1931 1931 1931 1920 1920 1920 1909 1909 1909 1909 1909 1909 1909 1920 1920 1920 1920 1909 1909 1909 1899 1899 1899 1899 1888 1888 1888 1888 1888 1888 1888 1888 1878 1878 1878 1878 1878 1868 1868 1868 1868 1868 1868 1868 1868 1858 1858 1858 1848 1848 1838 1848 1848 1848 1848 1848 1848 1848 1848 1848 1838 1838 1838 1838 1838 1838 1838 1838 1828 1828 1819 1819 1819 1819 1809 1809 1819 1819 1809 1819 1809 1809 1809 1809 1809 1809 1809 1809 1800 1800 1800 1790 1790 1790 1790 1790 1790 1800 1790 1781 1781 1781 1781 1781 1772 1772 1772 1772 1781 1772 1772 1772 1763 1754 1754 1754 1763 1772 1754 1754 1763 1763 1754 1754 1745 1745 1745 1745 1745 1745 1745 1745 1745 1745 1745 1736 1736 1736 1736 1736 1736 1736 1736 1736 1728 1728 1719 1719 1719 1711 1711 1711 1711 1711 1711 1711 1711 1711 1702 1702 1702 1702 1702 1702 1702 1702 1702 1702 1702 1702 1702 1702 1694 1694 1694 1686 1686 1686 1686 1677 1677 1677 1677 1677 1669 1669 1669 1669 1669 1669 1669 1669 1669 1669 1669 1661 1661 1661 1653 1653 1645 1645 1645 1645 1645 1645 1645 1645 1645 1645 1638 1638 1638 1638 1638 1638 1638 1638 1638 1638 1638 1630 1630 1630 1622 1622 1622 1622 1622 1622 1622 1615 1615 1615 1615 1615 1607 1607 1607 1607 1607 1607 1607 1607 1607 1607 1607 1600 1600 1600 1600 1600 1600 1600 1600 1600 1600 1592 1592 1585 1585 1585 1585 1585 1585 1585 1585 1578 1585 1578 1578 1578 1578 1571 1571 1571 1571 1571 1563 1563 1563 1563 1563 1556 1556 1556 1556 1556 1556 1556 1556 1556 1556 1556 1556 1549 1549 1549 1549 1542 1542 1549 1542 1542 1542 1549 1542 1542 1542 1542 1536 1529 1529 1529 1529 1529 1529 1529 1522 1522 1529 1522 1522 1522 1522 1522 1515 1515 1515 1522 1515 1515 1515 1515 1502 1502 1502 1502 1502 1502 1502 1502 1502 1502 1496 1496 1496 1489 1496 1496 1489 1496 1496 1489 1483 1483 1483 1483 1477 1477 1477 1477 1477 1477 1477 0 0 0 0 0 0 0 0 0 0 0 0 0 0 0 0 0 0 0 0 0 0 0 0 0 0 0 0 0 0 0 0 0 0 0 0 0 0
    2033 2033 2033 2021 2021 2021 2021 2021 2021 2021 2021 2021 2021 2021 2021 2021 2021 2021 2021 2009 2009 2009 2009 2009 2009 1998 1998 1998 1998 1986 1986 1986 1986 1998 1998 1986 1986 1986 1986 1986 1986 1975 1975 1986 1986 1986 1975 1975 1975 1975 1964 1964 1964 1964 1952 1952 1952 1952 1941 1941 1941 1941 1941 1941 1941 1941 1941 1941 1941 1941 1931 1931 1931 1931 1931 1931 1931 1920 1931 1920 1920 1909 1909 1909 1909 1909 1909 1909 1909 1909 1909 1909 1909 1920 1909 1909 1909 1909 1899 1899 1899 1888 1888 1888 1888 1888 1888 1878 1878 1878 1878 1878 1878 1878 1868 1868 1868 1868 1868 1868 1868 1868 1858 1858 1858 1858 1848 1848 1848 1848 1848 1848 1848 1848 1848 1848 1848 1838 1838 1838 1838 1838 1848 1838 1828 1819 1819 1819 1819 1819 1819 1819 1809 1819 1819 1809 1809 1809 1809 1809 1809 1809 1809 1809 1809 1809 1809 1809 1790 1790 1790 1800 1800 1800 1800 1790 1781 1781 1781 1781 1781 1781 1781 1781 1781 1772 1772 1772 1772 1763 1763 1754 1754 1754 1763 1754 1754 1754 1763 1754 1745 1745 1745 1745 1745 1745 1745 1745 1745 1745 1745 1736 1736 1736 1736 1736 1736 1736 1736 1736 1736 1736 1728 1719 1719 1711 1711 1711 1711 1711 1711 1711 1711 1711 1711 1711 1711 1711 1702 1702 1702 1702 1702 1702 1694 1694 1694 1694 1694 1686 1694 1686 1686 1677 1677 1677 1677 1677 1677 1677 1669 1669 1669 1669 1669 1669 1669 1669 1669 1669 1669 1669 1669 1661 1661 1661 1653 1653 1645 1645 1645 1645 1645 1645 1645 1645 1645 1638 1638 1638 1638 1638 1638 1638 1638 1638 1638 1638 1630 1630 1622 1622 1622 1622 1622 1622 1622 1622 1622 1622 1615 1607 1607 1607 1607 1607 1607 1607 1607 1607 1607 1607 1607 1600 1600 1600 1600 1600 1600 1600 1600 1600 1600 1592 1592 1585 1585 1585 1585 1585 1585 1585 1585 1585 1585 1585 1578 1578 1578 1578 1571 1563 1563 1571 1563 1563 1563 1563 1563 1556 1556 1556 1556 1556 1549 1556 1556 1556 1556 1556 1556 1556 1549 1549 1549 1549 1542 1542 1542 1536 1536 1536 1536 1536 1536 1529 1542 1529 1529 1529 1529 1529 1529 1522 1522 1522 1522 1522 1522 1522 1529 1522 1522 1522 1515 1515 1522 1515 1515 1515 1515 1515 1502 1502 1502 1502 1496 1502 1502 1502 1502 1502 1496 1496 1496 1496 1496 1489 1496 1496 1496 1483 1489 1483 1483 1483 1483 1477 1477 1477 1477 1477 0 0 0 0 0 0 0 0 0 0 0 0 0 0 0 0 0 0 0 0 0 0 0 0 0 0 0 0 0 0 0 0 0 0 0 0 0 0
    2033 2021 2021 2021 2021 2021 2021 2021 2021 2021 2033 2033 2033 2021 2021 2021 2021 2021 2021 2009 2009 2009 2009 2009 2009 1998 1998 1998 1986 1986 1986 1986 1986 1986 1986 1986 1998 1986 1986 1986 1986 1975 1975 1986 1986 1986 1975 1975 1975 1975 1975 1964 1964 1964 1964 1964 1964 1964 1952 1952 1941 1941 1941 1941 1941 1941 1941 1941 1941 1941 1931 1931 1931 1931 1931 1931 1931 1931 1931 1931 1920 1920 1909 1909 1909 1909 1909 1909 1920 1909 1909 1909 1909 1920 1909 1909 1909 1909 1899 1899 1899 1888 1888 1888 1888 1888 1888 1888 1888 1878 1878 1878 1878 1868 1868 1868 1868 1868 1868 1868 1858 1858 1858 1858 1858 1858 1848 1848 1848 1848 1848 1848 1848 1838 1848 1848 1838 1838 1838 1838 1838 1838 1828 1828 1819 1819 1819 1819 1819 1819 1809 1809 1809 1819 1819 1809 1809 1809 1809 1809 1809 1809 1809 1809 1809 1809 1809 1809 1790 1790 1790 1800 1800 1800 1790 1790 1781 1781 1781 1781 1781 1772 1772 1781 1781 1772 1772 1772 1772 1763 1763 1754 1754 1754 1763 1754 1754 1745 1745 1745 1745 1745 1745 1745 1745 1745 1745 1745 1745 1745 1745 1736 1736 1736 1736 1736 1736 1736 1736 1728 1728 1728 1728 1719 1719 1711 1711 1711 1711 1711 1711 1711 1711 1702 1702 1702 1702 1702 1702 1702 1702 1702 1702 1702 1702 1702 1694 1694 1694 1686 1686 1686 1686 1677 1677 1677 1677 1677 1677 1677 1677 1677 1669 1669 1669 1669 1669 1669 1669 1669 1669 1669 1669 1661 1661 1661 1653 1653 1645 1645 1645 1645 1645 1645 1645 1645 1645 1645 1645 1645 1645 1638 1638 1638 1638 1638 1638 1638 1638 1630 1630 1622 1622 1622 1622 1615 1615 1622 1615 1615 1615 1615 1607 1607 1607 1607 1607 1607 1607 1607 1607 1607 1607 1600 1600 1600 1600 1600 1600 1600 1600 1600 1600 1592 1592 1585 1585 1585 1585 1578 1578 1578 1578 1578 1578 1578 1578 1578 1578 1578 1571 1571 1563 1563 1563 1563 1563 1563 1556 1556 1556 1556 1556 1556 1549 1556 1556 1549 1549 1556 1549 1549 1549 1549 1549 1549 1542 1542 1542 1536 1542 1536 1536 1536 1536 1529 1529 1529 1529 1529 1529 1529 1529 1522 1522 1515 1515 1515 1522 1522 1529 1515 1515 1515 1515 1515 1515 1515 1515 1515 1515 1502 1502 1496 1502 1502 1496 1502 1502 1502 1502 1502 1496 1496 1496 1496 1496 1496 1496 1496 1483 1483 1483 1483 1483 1483 1483 1483 1483 1483 1483 1483 0 0 0 0 0 0 0 0 0 0 0 0 0 0 0 0 0 0 0 0 0 0 0 0 0 0 0 0 0 0 0 0 0 0 0 0 0 0
    2033 2033 2033 2021 2021 2021 2021 2021 2021 2021 2033 2033 2033 2033 2021 2021 2021 2021 2021 2009 2009 2009 2009 2009 2009 2003 2003 2003 1998 1998 1986 1986 1986 1986 1998 1986 1998 1986 1986 1986 1986 1975 1975 1986 1986 1986 1975 1975 1975 1975 1964 1964 1964 1964 1964 1964 1964 1964 1952 1952 1941 1941 1941 1941 1941 1941 1941 1941 1941 1931 1931 1931 1931 1931 1931 1931 1931 1931 1931 1931 1931 1920 1920 1909 1909 1909 1909 1909 1909 1909 1920 1909 1909 1920 1909 1909 1909 1909 1899 1899 1888 1888 1888 1888 1888 1888 1888 1888 1878 1878 1878 1878 1868 1868 1858 1858 1868 1858 1858 1858 1858 1858 1858 1858 1858 1858 1858 1858 1858 1858 1858 1858 1848 1848 1848 1848 1838 1838 1838 1838 1838 1838 1828 1828 1819 1819 1819 1819 1819 1809 1809 1809 1809 1819 1809 1809 1809 1809 1809 1809 1809 1809 1809 1809 1809 1809 1809 1800 1790 1790 1790 1800 1800 1790 1790 1790 1781 1772 1772 1772 1781 1781 1781 1781 1772 1772 1772 1772 1772 1772 1763 1763 1763 1763 1763 1754 1754 1749 1754 1745 1745 1745 1745 1745 1745 1745 1745 1745 1736 1736 1736 1736 1736 1736 1736 1728 1728 1728 1728 1728 1728 1728 1728 1719 1719 1711 1711 1711 1711 1711 1711 1711 1711 1711 1702 1702 1702 1702 1702 1702 1702 1702 1702 1702 1694 1694 1694 1694 1694 1694 1694 1694 1686 1686 1677 1677 1677 1677 1677 1677 1677 1677 1677 1669 1669 1669 1669 1669 1669 1669 1669 1661 1661 1661 1661 1661 1661 1653 1653 1645 1645 1645 1645 1645 1645 1645 1645 1638 1638 1638 1638 1638 1638 1638 1638 1638 1638 1638 1630 1630 1630 1622 1622 1622 1622 1622 1622 1622 1615 1615 1607 1607 1607 1607 1607 1607 1607 1607 1607 1607 1607 1607 1607 1600 1600 1600 1600 1600 1600 1592 1600 1600 1600 1592 1592 1592 1585 1585 1585 1578 1578 1578 1578 1578 1578 1578 1578 1571 1571 1571 1563 1563 1563 1563 1563 1563 1563 1563 1563 1556 1556 1556 1556 1556 1549 1556 1556 1549 1549 1549 1549 1549 1549 1549 1549 1549 1542 1542 1542 1542 1536 1536 1536 1536 1529 1529 1529 1529 1529 1529 1529 1522 1522 1522 1515 1509 1509 1509 1522 1522 1522 1515 1515 1515 1515 1509 1515 1515 1515 1515 1515 1515 1509 1509 1509 1509 1502 1502 1502 1502 1502 1502 1496 1496 1496 1496 1496 1496 1489 1489 1483 1483 1483 1483 1483 1477 1483 1483 1483 1489 1483 1489 0 0 0 0 0 0 0 0 0 0 0 0 0 0 0 0 0 0 0 0 0 0 0 0 0 0 0 0 0 0 0 0 0 0 0 0 0 0
    2033 2033 2033 2021 2033 2021 2021 2021 2021 2021 2033 2033 2033 2033 2033 2021 2021 2021 2021 2021 1998 2009 2009 2009 2009 2009 2009 2009 1998 1998 1998 1986 1986 1986 1986 1986 1986 1986 1986 1986 1975 1975 1975 1975 1975 1975 1975 1975 1975 1975 1964 1964 1964 1964 1964 1964 1952 1952 1952 1952 1941 1941 1941 1941 1941 1941 1941 1941 1941 1931 1931 1931 1931 1931 1931 1931 1931 1931 1931 1931 1931 1931 1920 1920 1920 1920 1920 1920 1920 1920 1920 1909 1909 1920 1909 1909 1899 1899 1899 1899 1888 1878 1878 1878 1878 1878 1878 1868 1868 1868 1868 1868 1858 1858 1858 1868 1868 1868 1868 1868 1858 1858 1858 1858 1858 1848 1848 1858 1858 1858 1858 1858 1848 1848 1848 1848 1838 1838 1838 1838 1838 1838 1838 1828 1819 1819 1819 1819 1819 1819 1809 1809 1809 1819 1809 1809 1809 1809 1809 1809 1809 1809 1809 1809 1800 1809 1809 1800 1800 1790 1790 1800 1790 1781 1790 1781 1781 1772 1781 1772 1781 1781 1781 1781 1781 1772 1772 1772 1772 1772 1763 1763 1763 1763 1763 1754 1754 1754 1745 1745 1745 1754 1749 1754 1745 1745 1745 1745 1745 1745 1745 1736 1736 1736 1736 1728 1728 1728 1728 1728 1728 1728 1719 1719 1711 1711 1711 1711 1711 1711 1711 1711 1711 1711 1711 1702 1702 1702 1702 1702 1702 1702 1702 1702 1702 1702 1694 1694 1694 1694 1694 1694 1686 1686 1677 1677 1677 1677 1677 1677 1677 1677 1677 1669 1669 1669 1669 1669 1669 1669 1669 1669 1661 1661 1661 1661 1653 1653 1645 1645 1645 1645 1645 1645 1645 1645 1638 1638 1638 1638 1638 1638 1638 1638 1638 1638 1638 1638 1630 1630 1630 1622 1622 1622 1622 1615 1615 1615 1615 1615 1607 1607 1607 1607 1607 1607 1607 1607 1607 1607 1607 1607 1607 1600 1600 1600 1600 1592 1592 1592 1592 1600 1600 1592 1592 1585 1585 1585 1585 1578 1578 1578 1578 1578 1578 1578 1571 1571 1563 1563 1563 1563 1563 1563 1563 1563 1563 1563 1556 1556 1556 1556 1556 1556 1552 1556 1549 1549 1549 1549 1549 1549 1549 1549 1549 1549 1542 1542 1542 1536 1536 1536 1536 1536 1536 1536 1536 1529 1529 1529 1529 1522 1522 1522 1515 1515 1515 1515 1522 1522 1522 1515 1515 1515 1515 1509 1515 1509 1509 1509 1515 1509 1509 1502 1502 1502 1502 1502 1502 1502 1502 1502 1496 1496 1496 1496 1496 1496 1496 1489 1489 1483 1483 1483 1483 1483 1477 1477 1483 1483 1477 1483 0 0 0 0 0 0 0 0 0 0 0 0 0 0 0 0 0 0 0 0 0 0 0 0 0 0 0 0 0 0 0 0 0 0 0 0 0 0
    2033 2033 2021 2021 2021 2021 2021 2021 2021 2021 2021 2021 2021 2033 2033 2021 2021 2021 2021 2009 2003 2009 2009 2009 2009 2009 2009 2009 2003 1998 1998 1998 1986 1986 1998 1986 1986 1986 1986 1986 1975 1964 1964 1975 1975 1975 1975 1975 1975 1975 1964 1964 1964 1964 1964 1964 1952 1952 1952 1941 1941 1941 1941 1941 1941 1941 1941 1941 1941 1931 1931 1931 1931 1931 1931 1931 1931 1931 1931 1931 1931 1931 1920 1920 1920 1920 1920 1920 1920 1920 1920 1909 1909 1909 1909 1899 1899 1899 1888 1888 1888 1878 1878 1878 1878 1878 1878 1868 1868 1868 1868 1868 1868 1868 1858 1868 1868 1868 1868 1868 1858 1858 1858 1858 1848 1848 1848 1848 1858 1858 1848 1858 1848 1848 1848 1848 1838 1838 1838 1838 1838 1838 1838 1828 1819 1819 1819 1819 1809 1809 1809 1809 1809 1809 1809 1809 1819 1809 1809 1809 1809 1809 1809 1809 1809 1809 1809 1800 1790 1790 1790 1800 1790 1781 1781 1781 1781 1781 1781 1781 1781 1781 1781 1781 1772 1781 1781 1781 1772 1772 1763 1763 1763 1763 1763 1754 1754 1754 1745 1745 1745 1763 1754 1745 1745 1745 1745 1745 1745 1745 1745 1736 1736 1728 1728 1728 1728 1728 1728 1728 1728 1728 1719 1719 1719 1711 1711 1711 1711 1711 1711 1711 1711 1711 1711 1711 1702 1702 1702 1702 1702 1702 1702 1702 1702 1702 1702 1694 1694 1686 1686 1686 1686 1677 1677 1677 1677 1677 1677 1677 1677 1677 1677 1669 1669 1669 1669 1669 1669 1669 1669 1661 1661 1661 1661 1661 1661 1653 1653 1645 1645 1645 1645 1645 1645 1645 1645 1638 1638 1638 1638 1638 1638 1638 1638 1638 1630 1630 1630 1630 1630 1622 1622 1622 1622 1615 1615 1615 1615 1615 1607 1607 1607 1607 1607 1607 1607 1607 1607 1607 1607 1607 1607 1600 1600 1600 1592 1592 1592 1585 1592 1592 1592 1592 1585 1585 1585 1585 1585 1585 1585 1585 1578 1578 1578 1578 1571 1563 1563 1563 1563 1563 1563 1563 1563 1563 1563 1563 1556 1556 1556 1556 1556 1556 1556 1556 1549 1549 1549 1549 1549 1549 1549 1549 1549 1549 1542 1542 1542 1536 1536 1536 1536 1536 1536 1536 1536 1529 1529 1529 1529 1529 1522 1515 1515 1515 1515 1515 1522 1522 1522 1515 1515 1522 1515 1509 1515 1509 1509 1509 1509 1509 1509 1509 1502 1502 1502 1502 1502 1502 1502 1502 1502 1502 1496 1496 1496 1496 1496 1496 1496 1489 1489 1489 1489 1477 1477 1477 1477 1483 1477 1470 0 0 0 0 0 0 0 0 0 0 0 0 0 0 0 0 0 0 0 0 0 0 0 0 0 0 0 0 0 0 0 0 0 0 0 0 0 0
    2033 2033 2033 2033 2033 2021 2021 2021 2021 2021 2021 2021 2033 2033 2033 2021 2021 2021 2021 2021 2009 2021 2021 2021 2021 2021 2021 2021 2009 2003 1998 1986 1986 1986 1998 1986 1986 1986 1986 1986 1975 1964 1964 1964 1975 1975 1975 1975 1975 1975 1975 1964 1952 1952 1952 1952 1952 1952 1941 1941 1941 1941 1941 1941 1941 1941 1941 1941 1931 1931 1931 1931 1931 1931 1931 1931 1931 1931 1931 1931 1931 1920 1920 1920 1920 1920 1920 1920 1920 1920 1920 1909 1909 1909 1909 1899 1899 1888 1888 1888 1888 1878 1878 1878 1878 1878 1878 1878 1868 1868 1868 1868 1868 1868 1868 1868 1868 1868 1868 1868 1868 1858 1858 1858 1858 1848 1848 1848 1858 1858 1848 1848 1848 1848 1848 1848 1838 1838 1838 1838 1838 1838 1828 1819 1819 1819 1819 1819 1819 1819 1809 1819 1819 1819 1809 1809 1809 1809 1809 1809 1809 1809 1809 1809 1800 1809 1809 1800 1800 1790 1790 1781 1781 1781 1781 1781 1781 1781 1781 1781 1781 1781 1781 1781 1772 1781 1781 1781 1772 1772 1772 1772 1772 1763 1763 1754 1754 1754 1749 1745 1749 1754 1754 1745 1745 1745 1745 1745 1745 1745 1745 1736 1736 1728 1728 1728 1728 1719 1719 1719 1719 1719 1719 1711 1711 1711 1711 1711 1711 1711 1711 1711 1711 1711 1711 1711 1711 1702 1702 1702 1702 1702 1702 1702 1702 1702 1694 1694 1694 1686 1686 1686 1686 1677 1677 1677 1677 1677 1677 1677 1677 1677 1677 1677 1677 1669 1669 1669 1669 1669 1669 1661 1661 1661 1653 1653 1653 1645 1653 1645 1645 1645 1645 1645 1645 1645 1638 1638 1638 1638 1638 1638 1638 1638 1638 1638 1630 1630 1622 1622 1622 1622 1622 1622 1622 1615 1622 1615 1615 1615 1607 1607 1607 1607 1607 1607 1607 1607 1607 1607 1607 1607 1600 1600 1600 1600 1592 1592 1592 1585 1592 1592 1592 1592 1585 1585 1585 1585 1585 1585 1585 1585 1585 1578 1578 1578 1578 1571 1571 1563 1563 1563 1563 1563 1563 1563 1563 1563 1556 1556 1556 1556 1556 1556 1556 1556 1549 1549 1549 1549 1549 1549 1549 1549 1549 1549 1542 1542 1536 1536 1536 1536 1536 1536 1536 1536 1536 1536 1536 1529 1529 1529 1529 1522 1522 1522 1522 1522 1522 1522 1522 1529 1522 1522 1522 1522 1515 1515 1515 1509 1509 1502 1502 1509 1502 1502 1502 1502 1502 1502 1502 1502 1502 1502 1496 1496 1496 1496 1496 1496 1496 1489 1496 1489 1483 1477 1477 1477 1477 1477 1470 1464 0 0 0 0 0 0 0 0 0 0 0 0 0 0 0 0 0 0 0 0 0 0 0 0 0 0 0 0 0 0 0 0 0 0 0 0 0 0
    2033 2033 2021 2021 2021 2021 2021 2021 2021 2021 2033 2033 2033 2033 2033 2021 2021 2021 2021 2021 2021 2021 2021 2021 2021 2021 2021 2021 2009 2009 1998 1998 1986 1986 1998 1986 1986 1986 1986 1986 1986 1975 1964 1975 1975 1975 1975 1975 1975 1975 1975 1964 1952 1952 1952 1952 1952 1952 1941 1941 1941 1941 1941 1941 1941 1941 1941 1941 1931 1931 1931 1931 1931 1931 1931 1931 1931 1931 1931 1931 1931 1920 1920 1920 1920 1920 1920 1920 1920 1920 1909 1909 1909 1909 1899 1899 1899 1888 1888 1888 1888 1878 1878 1878 1878 1878 1878 1878 1868 1868 1868 1868 1868 1868 1868 1868 1868 1868 1858 1858 1858 1858 1858 1858 1858 1848 1848 1848 1848 1848 1848 1848 1848 1848 1848 1838 1838 1838 1838 1838 1828 1828 1819 1819 1819 1819 1819 1819 1819 1809 1809 1809 1809 1809 1809 1809 1809 1809 1809 1809 1809 1809 1809 1809 1809 1809 1809 1809 1800 1800 1800 1800 1790 1781 1781 1781 1781 1781 1781 1781 1781 1781 1781 1772 1772 1772 1781 1781 1772 1772 1772 1772 1772 1772 1763 1763 1763 1754 1754 1745 1754 1763 1754 1745 1745 1745 1745 1745 1745 1745 1745 1736 1736 1736 1736 1728 1728 1719 1719 1719 1719 1719 1719 1719 1719 1719 1719 1719 1711 1711 1711 1711 1711 1711 1711 1711 1711 1702 1702 1702 1702 1702 1702 1702 1694 1702 1694 1694 1694 1686 1686 1686 1686 1677 1677 1677 1677 1677 1677 1677 1677 1677 1677 1669 1669 1669 1669 1669 1669 1661 1661 1661 1661 1653 1653 1653 1653 1653 1653 1653 1653 1645 1653 1645 1645 1645 1638 1638 1638 1638 1638 1638 1638 1638 1638 1638 1630 1630 1622 1622 1622 1622 1622 1622 1615 1615 1615 1615 1615 1615 1615 1615 1615 1607 1607 1607 1607 1607 1607 1607 1607 1607 1600 1600 1600 1600 1592 1592 1592 1585 1592 1592 1592 1592 1585 1585 1585 1585 1585 1585 1585 1585 1578 1578 1578 1578 1578 1571 1571 1563 1563 1563 1563 1563 1563 1563 1556 1556 1556 1556 1556 1556 1556 1556 1556 1556 1549 1542 1549 1549 1549 1549 1549 1549 1549 1549 1542 1542 1542 1536 1536 1536 1536 1536 1536 1529 1536 1529 1529 1529 1529 1522 1522 1522 1522 1515 1515 1515 1522 1522 1522 1522 1522 1522 1522 1522 1515 1515 1515 1509 1509 1502 1502 1502 1502 1502 1502 1502 1502 1502 1502 1502 1502 1502 1496 1496 1496 1496 1489 1489 1489 1483 1477 1483 1483 1477 1477 1477 1470 1470 1470 1464 0 0 0 0 0 0 0 0 0 0 0 0 0 0 0 0 0 0 0 0 0 0 0 0 0 0 0 0 0 0 0 0 0 0 0 0 0 0
    2033 2033 2021 2021 2033 2033 2033 2033 2033 2033 2033 2033 2033 2033 2033 2021 2021 2021 2021 2021 2021 2021 2021 2021 2021 2021 2021 2021 2021 2009 1998 1998 1986 1986 1986 1986 1986 1986 1986 1986 1986 1975 1975 1975 1986 1986 1986 1986 1975 1975 1964 1964 1952 1952 1952 1952 1952 1941 1941 1941 1941 1941 1941 1941 1941 1941 1931 1931 1931 1931 1931 1931 1931 1931 1931 1931 1931 1931 1931 1931 1931 1931 1920 1920 1920 1920 1920 1920 1920 1920 1909 1909 1909 1909 1899 1899 1888 1888 1878 1878 1878 1878 1878 1878 1888 1888 1888 1878 1878 1868 1868 1868 1868 1868 1868 1868 1868 1868 1858 1868 1858 1858 1858 1858 1858 1848 1848 1848 1848 1848 1848 1848 1848 1848 1848 1838 1838 1838 1838 1838 1828 1828 1828 1819 1819 1819 1819 1819 1819 1819 1819 1819 1819 1809 1809 1809 1809 1809 1809 1809 1809 1809 1809 1809 1800 1800 1800 1800 1800 1790 1790 1781 1781 1781 1781 1781 1781 1781 1781 1781 1781 1781 1772 1772 1772 1772 1781 1772 1772 1772 1772 1772 1772 1763 1763 1754 1754 1754 1754 1745 1754 1745 1745 1745 1745 1745 1745 1745 1745 1745 1745 1736 1736 1728 1736 1728 1728 1719 1719 1719 1719 1719 1711 1711 1711 1719 1719 1719 1711 1711 1711 1711 1711 1711 1702 1702 1702 1702 1702 1702 1702 1702 1702 1702 1702 1702 1702 1694 1694 1694 1686 1686 1686 1686 1677 1677 1677 1677 1677 1677 1677 1677 1677 1669 1669 1669 1669 1669 1669 1669 1669 1661 1653 1653 1653 1653 1653 1645 1653 1645 1645 1645 1645 1645 1645 1645 1638 1638 1638 1638 1638 1638 1638 1638 1638 1638 1630 1630 1622 1622 1622 1622 1622 1622 1615 1615 1615 1615 1615 1615 1615 1615 1615 1607 1607 1607 1607 1607 1607 1607 1607 1607 1600 1607 1600 1600 1600 1592 1592 1585 1585 1585 1592 1585 1585 1585 1585 1585 1585 1585 1585 1578 1578 1578 1578 1578 1578 1571 1571 1563 1563 1563 1563 1563 1563 1556 1556 1556 1556 1556 1556 1556 1556 1549 1549 1549 1542 1542 1542 1549 1549 1542 1542 1549 1549 1549 1542 1536 1536 1536 1536 1536 1536 1536 1529 1529 1529 1529 1529 1529 1529 1522 1522 1522 1522 1522 1522 1522 1529 1522 1522 1522 1522 1522 1515 1522 1515 1515 1515 1509 1509 1502 1509 1502 1502 1502 1502 1502 1502 1502 1502 1502 1502 1502 1496 1496 1496 1496 1489 1489 1489 1483 1477 1477 1483 1477 1477 1470 1470 1489 1470 1464 0 0 0 0 0 0 0 0 0 0 0 0 0 0 0 0 0 0 0 0 0 0 0 0 0 0 0 0 0 0 0 0 0 0 0 0 0 0
    2033 2021 2021 2021 2033 2033 2033 2033 2033 2033 2033 2033 2033 2021 2021 2021 2021 2021 2021 2021 2021 2021 2021 2021 2021 2021 2021 2021 2021 2009 1998 1998 1986 1986 1986 1986 1986 1986 1986 1986 1975 1975 1975 1975 1986 1986 1986 1986 1975 1975 1975 1975 1964 1952 1952 1952 1952 1941 1941 1941 1941 1941 1941 1941 1941 1941 1941 1941 1941 1931 1931 1931 1931 1931 1931 1931 1931 1931 1931 1931 1931 1920 1920 1920 1920 1909 1909 1920 1920 1920 1920 1909 1909 1909 1899 1899 1888 1878 1878 1878 1888 1888 1888 1888 1888 1888 1888 1878 1878 1878 1878 1878 1868 1868 1868 1868 1868 1858 1858 1858 1858 1858 1858 1858 1848 1848 1848 1848 1848 1848 1848 1848 1848 1848 1848 1838 1838 1838 1828 1828 1828 1819 1819 1819 1819 1819 1819 1819 1819 1819 1819 1819 1809 1809 1809 1809 1809 1809 1800 1800 1809 1809 1809 1809 1800 1800 1800 1800 1800 1790 1790 1790 1781 1781 1781 1781 1781 1781 1781 1781 1772 1772 1772 1772 1772 1781 1781 1781 1772 1772 1772 1772 1772 1763 1763 1754 1754 1754 1754 1745 1754 1745 1745 1745 1745 1745 1745 1745 1745 1745 1745 1736 1736 1736 1736 1736 1728 1719 1728 1719 1719 1719 1711 1711 1719 1719 1719 1719 1711 1711 1711 1711 1711 1711 1711 1702 1702 1702 1702 1702 1702 1702 1694 1694 1694 1694 1694 1686 1686 1686 1686 1686 1686 1677 1677 1677 1677 1677 1677 1669 1669 1669 1669 1669 1669 1669 1669 1669 1669 1669 1661 1661 1653 1653 1645 1653 1645 1645 1645 1645 1645 1645 1645 1645 1645 1645 1638 1638 1638 1638 1638 1638 1638 1638 1638 1630 1630 1622 1622 1615 1622 1615 1615 1615 1615 1615 1615 1615 1615 1615 1615 1615 1615 1607 1607 1607 1607 1607 1607 1607 1607 1607 1600 1607 1600 1600 1600 1592 1592 1592 1592 1592 1592 1592 1592 1592 1585 1585 1585 1585 1585 1578 1578 1578 1578 1578 1571 1571 1571 1563 1563 1563 1563 1563 1563 1563 1556 1556 1556 1556 1556 1556 1556 1549 1549 1549 1542 1536 1542 1549 1542 1542 1542 1542 1549 1549 1542 1542 1542 1542 1536 1536 1536 1536 1536 1536 1536 1536 1536 1529 1529 1529 1529 1529 1522 1522 1522 1522 1529 1522 1522 1522 1522 1522 1522 1522 1515 1515 1515 1515 1509 1509 1509 1509 1502 1502 1502 1502 1502 1502 1502 1502 1502 1502 1502 1496 1496 1496 1489 1489 1489 1477 1477 1483 1483 1477 1477 1477 1470 1483 1470 1464 0 0 0 0 0 0 0 0 0 0 0 0 0 0 0 0 0 0 0 0 0 0 0 0 0 0 0 0 0 0 0 0 0 0 0 0 0 0
    2033 2033 2021 2021 2033 2045 2033 2033 2033 2033 2033 2033 2033 2021 2021 2021 2021 2021 2021 2009 2009 2021 2021 2021 2021 2021 2021 2021 2021 2009 1998 1998 1998 1986 1986 1986 1986 1986 1986 1975 1975 1975 1975 1975 1975 1986 1986 1986 1975 1975 1975 1975 1964 1952 1952 1952 1952 1941 1941 1941 1941 1941 1941 1941 1941 1941 1941 1941 1931 1931 1931 1931 1931 1931 1941 1931 1931 1931 1931 1931 1920 1920 1920 1920 1920 1920 1920 1920 1920 1920 1909 1909 1909 1899 1899 1888 1888 1878 1878 1878 1888 1888 1888 1888 1888 1888 1888 1888 1878 1878 1878 1878 1868 1868 1868 1868 1858 1858 1858 1858 1858 1858 1858 1858 1848 1848 1848 1848 1848 1848 1848 1848 1848 1848 1848 1838 1838 1838 1838 1828 1819 1819 1819 1819 1819 1819 1819 1819 1819 1819 1819 1819 1809 1809 1809 1819 1819 1809 1809 1809 1809 1809 1809 1800 1800 1800 1800 1800 1800 1790 1790 1781 1781 1781 1781 1781 1781 1781 1781 1781 1781 1781 1772 1772 1772 1772 1781 1772 1772 1772 1772 1763 1772 1763 1754 1754 1754 1754 1754 1745 1745 1745 1745 1745 1745 1745 1745 1745 1745 1745 1745 1736 1736 1736 1736 1736 1728 1728 1728 1719 1719 1719 1711 1711 1711 1711 1719 1711 1711 1711 1711 1711 1711 1711 1702 1702 1702 1702 1702 1702 1702 1702 1702 1702 1702 1702 1702 1694 1694 1686 1686 1686 1686 1677 1677 1677 1677 1677 1677 1669 1669 1669 1669 1669 1669 1669 1669 1669 1669 1669 1669 1661 1661 1653 1653 1653 1645 1645 1645 1645 1645 1645 1645 1645 1645 1645 1638 1638 1638 1638 1638 1638 1638 1638 1630 1630 1630 1630 1622 1622 1622 1622 1615 1615 1622 1615 1622 1615 1615 1615 1615 1615 1615 1607 1607 1607 1607 1607 1607 1600 1600 1600 1600 1600 1600 1592 1592 1585 1585 1585 1585 1585 1585 1592 1585 1592 1585 1585 1585 1585 1585 1578 1578 1578 1578 1571 1571 1571 1563 1563 1563 1563 1563 1563 1563 1563 1563 1556 1556 1556 1556 1556 1556 1549 1549 1549 1542 1542 1542 1549 1542 1549 1542 1542 1549 1549 1542 1542 1542 1542 1536 1536 1529 1536 1529 1529 1536 1529 1536 1529 1529 1529 1529 1529 1522 1522 1522 1522 1522 1522 1522 1522 1522 1522 1515 1515 1515 1515 1515 1509 1509 1502 1502 1502 1502 1502 1502 1502 1502 1502 1496 1496 1496 1496 1496 1496 1496 1496 1489 1489 1489 1489 1483 1483 1483 1483 1470 1470 1470 1477 1477 1477 0 0 0 0 0 0 0 0 0 0 0 0 0 0 0 0 0 0 0 0 0 0 0 0 0 0 0 0 0 0 0 0 0 0 0 0 0 0
    2033 2033 2033 2033 2033 2033 2033 2033 2033 2033 2033 2033 2033 2021 2021 2021 2021 2021 2021 2021 2009 2021 2021 2021 2009 2009 2009 2009 2009 1998 1998 1998 1998 1998 1998 1986 1986 1986 1975 1975 1975 1975 1975 1975 1975 1975 1986 1986 1975 1975 1975 1975 1964 1952 1952 1952 1952 1941 1941 1941 1941 1941 1941 1941 1941 1941 1941 1941 1931 1931 1931 1931 1931 1931 1931 1931 1931 1931 1931 1931 1920 1920 1920 1920 1920 1920 1909 1909 1920 1909 1909 1909 1899 1899 1899 1888 1888 1878 1888 1888 1888 1888 1888 1888 1888 1888 1888 1888 1878 1878 1868 1868 1868 1868 1858 1858 1858 1858 1858 1858 1858 1858 1858 1848 1848 1848 1838 1838 1838 1838 1838 1838 1848 1848 1838 1838 1838 1828 1828 1819 1819 1819 1819 1819 1819 1819 1819 1819 1819 1819 1819 1819 1819 1809 1809 1809 1819 1819 1819 1809 1809 1809 1809 1800 1800 1800 1790 1790 1800 1790 1790 1781 1781 1781 1781 1781 1781 1781 1781 1781 1781 1790 1781 1781 1772 1772 1772 1772 1772 1763 1763 1763 1772 1763 1754 1763 1763 1754 1754 1745 1745 1745 1745 1745 1745 1745 1745 1745 1745 1745 1745 1745 1736 1736 1736 1736 1728 1728 1728 1719 1719 1719 1711 1711 1711 1711 1711 1711 1711 1711 1711 1711 1711 1711 1711 1702 1702 1702 1702 1702 1702 1702 1702 1694 1694 1694 1694 1686 1686 1686 1686 1677 1677 1677 1677 1677 1677 1677 1669 1669 1669 1669 1669 1669 1669 1669 1677 1669 1669 1669 1669 1661 1661 1653 1653 1653 1645 1645 1645 1645 1645 1645 1645 1645 1645 1645 1638 1638 1638 1638 1638 1638 1638 1638 1630 1630 1630 1630 1622 1622 1622 1622 1615 1622 1622 1615 1622 1622 1622 1615 1615 1615 1615 1607 1607 1607 1607 1607 1607 1600 1600 1600 1592 1600 1600 1592 1592 1585 1592 1585 1585 1592 1585 1592 1592 1585 1585 1585 1585 1585 1585 1578 1578 1578 1578 1578 1578 1571 1571 1563 1571 1563 1563 1563 1563 1563 1556 1556 1556 1556 1556 1556 1556 1549 1552 1549 1542 1542 1542 1549 1542 1549 1542 1549 1549 1549 1542 1542 1542 1542 1536 1536 1536 1536 1529 1529 1529 1529 1529 1529 1529 1529 1529 1529 1522 1522 1522 1529 1522 1522 1522 1522 1522 1522 1515 1515 1515 1515 1515 1509 1509 1502 1502 1502 1502 1502 1502 1502 1502 1502 1496 1502 1496 1496 1496 1496 1496 1496 1489 1489 1489 1489 1489 1483 1483 1483 1477 1477 1477 1477 1477 1477 0 0 0 0 0 0 0 0 0 0 0 0 0 0 0 0 0 0 0 0 0 0 0 0 0 0 0 0 0 0 0 0 0 0 0 0 0 0
    2033 2033 2033 2033 2033 2033 2045 2045 2045 2033 2033 2033 2021 2021 2021 2021 2021 2021 2009 2009 1998 2009 2009 2021 2009 1998 2009 2009 2009 1998 1998 1998 1998 1998 1998 1998 1986 1986 1986 1975 1975 1975 1975 1975 1986 1986 1986 1986 1975 1975 1975 1975 1964 1952 1952 1952 1952 1952 1941 1941 1941 1941 1941 1941 1941 1941 1941 1941 1941 1941 1931 1931 1931 1931 1931 1931 1931 1920 1920 1920 1920 1920 1920 1920 1920 1909 1909 1909 1909 1909 1909 1899 1899 1899 1899 1888 1888 1878 1878 1888 1888 1888 1888 1888 1888 1888 1888 1888 1888 1888 1878 1878 1868 1858 1858 1858 1858 1858 1858 1858 1858 1858 1858 1858 1848 1848 1848 1848 1838 1838 1848 1838 1848 1848 1838 1838 1838 1828 1828 1828 1819 1819 1819 1819 1819 1819 1819 1819 1819 1819 1819 1819 1819 1809 1809 1819 1819 1809 1809 1809 1809 1809 1800 1800 1800 1790 1790 1790 1790 1790 1790 1781 1781 1781 1781 1781 1781 1781 1781 1781 1781 1781 1781 1772 1772 1772 1772 1772 1772 1763 1763 1763 1763 1763 1754 1754 1754 1754 1754 1749 1749 1745 1745 1745 1745 1745 1745 1745 1745 1745 1745 1745 1745 1736 1736 1736 1736 1736 1728 1728 1719 1719 1711 1711 1711 1711 1711 1711 1711 1711 1711 1711 1711 1711 1711 1702 1702 1702 1702 1702 1702 1694 1694 1694 1702 1694 1694 1686 1686 1686 1686 1677 1677 1677 1677 1677 1677 1677 1669 1669 1669 1669 1669 1669 1669 1669 1669 1669 1669 1669 1669 1661 1661 1653 1653 1653 1645 1645 1645 1645 1645 1645 1645 1645 1645 1645 1638 1638 1638 1638 1638 1638 1638 1638 1630 1630 1630 1630 1630 1622 1622 1622 1615 1622 1622 1615 1615 1622 1622 1615 1615 1615 1615 1615 1615 1607 1607 1607 1607 1607 1600 1600 1600 1600 1600 1592 1592 1592 1592 1585 1585 1585 1585 1585 1585 1585 1585 1585 1585 1585 1578 1578 1578 1578 1578 1578 1578 1571 1571 1563 1571 1563 1563 1563 1563 1563 1556 1556 1556 1556 1556 1556 1549 1549 1556 1549 1549 1549 1542 1549 1542 1549 1542 1542 1542 1542 1542 1542 1542 1536 1536 1536 1536 1529 1529 1529 1529 1529 1529 1529 1529 1529 1522 1522 1522 1522 1529 1522 1522 1522 1522 1522 1522 1515 1515 1515 1515 1515 1515 1509 1509 1502 1502 1502 1502 1502 1502 1502 1496 1496 1496 1496 1496 1496 1496 1496 1496 1496 1489 1489 1489 1489 1489 1483 1483 1483 1470 1477 1477 1477 1477 1470 0 0 0 0 0 0 0 0 0 0 0 0 0 0 0 0 0 0 0 0 0 0 0 0 0 0 0 0 0 0 0 0 0 0 0 0 0 0
    2033 2033 2033 2033 2033 2033 2045 2045 2045 2045 2033 2033 2033 2033 2021 2021 2021 2021 2009 2009 1998 2009 2009 2009 2009 1998 2009 2009 2009 1998 1998 1998 1998 1998 1998 1986 1986 1986 1986 1975 1975 1975 1975 1975 1975 1986 1986 1986 1975 1975 1975 1975 1964 1952 1952 1952 1941 1941 1941 1941 1941 1941 1941 1941 1941 1941 1941 1941 1931 1931 1931 1931 1931 1931 1931 1931 1931 1920 1920 1920 1920 1920 1920 1920 1920 1920 1909 1899 1899 1899 1909 1899 1899 1899 1899 1888 1888 1888 1888 1888 1888 1888 1888 1888 1888 1888 1888 1888 1878 1878 1878 1878 1878 1868 1868 1858 1858 1858 1858 1858 1858 1858 1858 1858 1858 1848 1848 1848 1848 1848 1848 1838 1848 1848 1838 1838 1828 1838 1828 1828 1828 1819 1819 1819 1819 1819 1819 1819 1819 1819 1819 1819 1809 1819 1819 1819 1809 1809 1809 1809 1809 1809 1800 1800 1800 1790 1790 1800 1800 1790 1790 1790 1790 1790 1781 1781 1781 1781 1781 1781 1781 1781 1781 1772 1772 1772 1772 1772 1763 1763 1763 1763 1772 1763 1763 1763 1763 1763 1763 1754 1754 1749 1745 1745 1745 1745 1745 1745 1745 1745 1745 1745 1745 1736 1736 1736 1736 1736 1736 1728 1719 1719 1711 1711 1711 1711 1711 1711 1711 1711 1711 1711 1711 1711 1711 1702 1702 1702 1702 1702 1702 1694 1694 1694 1694 1694 1686 1686 1686 1686 1686 1677 1677 1677 1677 1677 1677 1677 1669 1669 1669 1669 1669 1669 1669 1669 1677 1669 1669 1669 1669 1661 1661 1653 1645 1645 1645 1645 1645 1645 1645 1645 1645 1645 1645 1645 1638 1638 1638 1638 1638 1638 1638 1638 1638 1630 1630 1630 1630 1622 1622 1622 1615 1615 1622 1615 1615 1622 1622 1622 1615 1615 1615 1615 1615 1607 1607 1607 1607 1607 1607 1600 1600 1600 1600 1592 1592 1592 1592 1585 1585 1585 1585 1585 1585 1585 1585 1585 1578 1578 1578 1578 1578 1571 1578 1578 1571 1571 1571 1571 1571 1571 1571 1563 1563 1563 1556 1556 1556 1556 1556 1549 1549 1549 1549 1549 1549 1542 1542 1549 1549 1549 1542 1542 1542 1542 1542 1542 1542 1536 1536 1536 1536 1536 1529 1529 1529 1529 1529 1522 1522 1522 1522 1522 1522 1529 1529 1522 1522 1515 1522 1522 1522 1515 1515 1515 1515 1515 1515 1515 1509 1509 1502 1502 1502 1496 1496 1496 1496 1496 1496 1496 1502 1496 1502 1502 1496 1496 1489 1489 1489 1489 1489 1483 1483 1489 1489 1489 1489 1483 1483 1483 0 0 0 0 0 0 0 0 0 0 0 0 0 0 0 0 0 0 0 0 0 0 0 0 0 0 0 0 0 0 0 0 0 0 0 0 0 0
    2021 2021 2021 2033 2033 2033 2033 2033 2033 2045 2033 2033 2033 2033 2021 2021 2021 2021 2009 2009 1998 2009 2009 2009 1998 1998 1998 1998 1998 1986 1986 1998 1998 1998 1998 1986 1986 1986 1986 1986 1986 1975 1975 1975 1975 1975 1975 1986 1986 1975 1975 1975 1964 1964 1952 1952 1952 1952 1941 1941 1941 1941 1941 1941 1941 1941 1941 1941 1941 1931 1931 1931 1931 1931 1931 1931 1920 1920 1920 1920 1920 1920 1920 1920 1909 1909 1899 1899 1899 1899 1899 1899 1899 1899 1899 1888 1888 1888 1888 1888 1888 1888 1888 1888 1888 1888 1888 1888 1878 1878 1878 1868 1868 1868 1858 1858 1858 1858 1858 1858 1858 1858 1858 1858 1848 1848 1848 1848 1848 1848 1848 1848 1848 1848 1838 1838 1828 1838 1828 1828 1828 1828 1819 1819 1819 1819 1819 1819 1819 1819 1819 1819 1819 1819 1819 1809 1809 1809 1809 1809 1809 1800 1800 1800 1800 1800 1800 1800 1800 1800 1790 1790 1781 1781 1781 1781 1781 1781 1781 1781 1781 1781 1781 1772 1772 1772 1772 1772 1763 1772 1772 1763 1763 1763 1763 1763 1763 1754 1754 1754 1754 1754 1745 1745 1745 1745 1745 1745 1745 1745 1745 1745 1745 1745 1736 1736 1736 1736 1736 1728 1728 1719 1719 1711 1711 1711 1711 1711 1711 1711 1711 1711 1711 1711 1711 1702 1702 1702 1702 1702 1702 1694 1702 1694 1702 1694 1686 1686 1686 1686 1686 1677 1686 1677 1686 1677 1677 1677 1677 1669 1669 1669 1669 1669 1669 1669 1669 1669 1669 1669 1669 1661 1661 1653 1653 1645 1645 1645 1645 1645 1645 1645 1645 1645 1638 1638 1638 1638 1638 1638 1638 1638 1638 1638 1638 1638 1630 1630 1630 1622 1622 1622 1615 1615 1622 1615 1615 1622 1622 1615 1615 1615 1615 1615 1607 1607 1607 1607 1607 1607 1600 1600 1592 1600 1592 1592 1592 1592 1592 1585 1585 1585 1585 1585 1585 1585 1585 1585 1578 1578 1578 1578 1578 1578 1578 1578 1571 1571 1571 1571 1571 1571 1563 1563 1563 1563 1563 1556 1556 1549 1549 1549 1549 1549 1549 1549 1549 1549 1549 1542 1542 1542 1542 1542 1542 1542 1542 1542 1536 1536 1536 1536 1529 1529 1529 1529 1529 1529 1529 1522 1522 1522 1522 1522 1522 1529 1529 1522 1522 1522 1522 1522 1515 1515 1515 1515 1515 1515 1515 1515 1509 1509 1509 1502 1502 1502 1496 1496 1496 1496 1496 1496 1502 1496 1502 1502 1496 1496 1489 1489 1489 1489 1489 1483 1483 1489 1489 1489 1489 1489 1489 1483 0 0 0 0 0 0 0 0 0 0 0 0 0 0 0 0 0 0 0 0 0 0 0 0 0 0 0 0 0 0 0 0 0 0 0 0 0 0
    2033 2033 2033 2033 2033 2033 2033 2033 2033 2033 2033 2033 2033 2033 2021 2021 2021 2021 2009 2009 2003 2009 2009 2009 1998 1986 1986 1986 1986 1986 1986 1986 1986 1998 1998 1986 1986 1986 1986 1986 1986 1975 1975 1975 1975 1975 1975 1975 1975 1975 1975 1964 1964 1952 1952 1941 1941 1941 1941 1941 1941 1941 1941 1941 1941 1941 1941 1941 1941 1941 1931 1931 1931 1931 1931 1931 1931 1920 1920 1920 1920 1909 1909 1909 1909 1909 1899 1899 1899 1899 1899 1899 1899 1899 1899 1888 1888 1888 1888 1888 1888 1888 1888 1888 1888 1888 1888 1888 1888 1878 1878 1878 1878 1868 1858 1858 1858 1858 1858 1858 1858 1858 1858 1848 1848 1848 1848 1848 1848 1848 1848 1848 1848 1838 1838 1838 1838 1838 1838 1828 1828 1828 1828 1819 1819 1819 1819 1819 1819 1819 1819 1819 1819 1819 1819 1809 1809 1809 1809 1809 1800 1800 1790 1800 1790 1790 1790 1800 1800 1800 1790 1790 1790 1790 1790 1781 1781 1781 1781 1781 1781 1781 1781 1772 1772 1772 1772 1763 1763 1763 1763 1763 1763 1763 1763 1754 1754 1754 1754 1754 1745 1745 1745 1745 1745 1745 1745 1745 1745 1745 1745 1736 1745 1736 1736 1736 1736 1736 1736 1728 1719 1719 1719 1711 1711 1711 1711 1711 1711 1711 1711 1711 1711 1711 1702 1702 1702 1702 1702 1702 1702 1694 1702 1702 1702 1694 1686 1686 1686 1686 1686 1677 1686 1677 1677 1677 1677 1677 1677 1677 1677 1677 1677 1677 1669 1669 1677 1677 1669 1669 1669 1661 1661 1653 1645 1645 1645 1645 1645 1645 1645 1645 1645 1645 1638 1638 1638 1638 1638 1638 1638 1638 1638 1638 1638 1638 1630 1630 1630 1622 1622 1622 1615 1615 1615 1615 1615 1622 1622 1615 1615 1615 1615 1615 1607 1607 1607 1607 1607 1600 1600 1600 1592 1592 1592 1585 1585 1592 1585 1585 1585 1585 1585 1592 1592 1585 1585 1585 1585 1578 1578 1578 1578 1578 1578 1578 1578 1578 1578 1571 1571 1571 1563 1563 1563 1563 1556 1556 1556 1549 1552 1552 1549 1549 1549 1552 1549 1549 1542 1542 1542 1542 1542 1542 1542 1542 1542 1542 1542 1536 1536 1536 1536 1536 1529 1529 1529 1529 1529 1529 1522 1522 1529 1522 1522 1529 1529 1522 1522 1522 1522 1515 1515 1515 1509 1509 1509 1515 1509 1509 1509 1509 1509 1502 1502 1502 1496 1496 1496 1496 1496 1496 1496 1496 1496 1502 1496 1496 1496 1496 1489 1489 1489 1483 1489 1489 1489 1489 1489 1483 1483 1483 0 0 0 0 0 0 0 0 0 0 0 0 0 0 0 0 0 0 0 0 0 0 0 0 0 0 0 0 0 0 0 0 0 0 0 0 0 0
    2021 2033 2033 2033 2033 2033 2033 2033 2033 2033 2033 2033 2033 2021 2021 2021 2021 2021 2009 2009 2009 2009 1998 1998 1998 1986 1986 1986 1986 1986 1986 1986 1986 1986 1986 1986 1986 1986 1986 1986 1975 1975 1975 1975 1975 1975 1975 1975 1975 1975 1964 1964 1964 1964 1952 1952 1941 1941 1941 1941 1941 1941 1941 1941 1941 1941 1941 1941 1941 1931 1931 1931 1931 1931 1931 1931 1931 1920 1920 1909 1909 1909 1909 1909 1909 1909 1899 1899 1899 1899 1899 1899 1899 1888 1888 1888 1888 1888 1888 1888 1888 1888 1888 1888 1888 1888 1888 1888 1878 1878 1868 1868 1868 1858 1858 1858 1858 1858 1858 1858 1858 1858 1858 1848 1848 1848 1848 1848 1848 1848 1848 1838 1838 1848 1838 1838 1848 1848 1838 1838 1838 1828 1828 1828 1828 1828 1828 1828 1819 1819 1819 1819 1819 1819 1809 1809 1809 1809 1809 1809 1800 1800 1790 1790 1790 1790 1790 1800 1800 1800 1800 1790 1790 1781 1781 1781 1781 1781 1781 1781 1781 1781 1772 1772 1772 1772 1772 1763 1772 1763 1763 1763 1763 1763 1763 1763 1763 1754 1754 1754 1745 1745 1745 1745 1745 1745 1745 1745 1745 1736 1736 1736 1736 1736 1736 1736 1736 1736 1736 1736 1728 1728 1728 1711 1711 1711 1711 1711 1711 1711 1711 1711 1711 1711 1702 1702 1702 1702 1702 1702 1702 1702 1702 1702 1702 1694 1686 1686 1686 1686 1686 1677 1677 1677 1686 1677 1686 1677 1677 1677 1677 1677 1677 1669 1669 1669 1669 1669 1669 1669 1669 1661 1661 1653 1645 1645 1645 1645 1645 1645 1645 1645 1638 1638 1638 1638 1630 1638 1638 1638 1638 1638 1638 1638 1638 1638 1630 1630 1630 1622 1622 1622 1615 1615 1615 1615 1615 1622 1615 1615 1615 1615 1607 1607 1607 1607 1607 1607 1607 1600 1600 1600 1592 1592 1592 1585 1592 1592 1592 1585 1585 1585 1585 1585 1585 1585 1585 1585 1578 1578 1578 1578 1578 1578 1578 1578 1578 1578 1571 1571 1571 1571 1563 1563 1563 1556 1556 1556 1556 1549 1556 1556 1549 1549 1549 1556 1549 1549 1549 1549 1542 1542 1542 1542 1542 1536 1536 1536 1536 1536 1536 1536 1536 1529 1529 1529 1529 1529 1529 1529 1522 1522 1529 1529 1529 1522 1522 1522 1522 1515 1515 1515 1515 1515 1509 1509 1515 1515 1509 1509 1509 1509 1509 1502 1502 1502 1502 1496 1496 1502 1496 1496 1489 1496 1496 1502 1496 1496 1496 1496 1489 1489 1489 1489 1489 1489 1489 1489 1489 1483 1483 1483 0 0 0 0 0 0 0 0 0 0 0 0 0 0 0 0 0 0 0 0 0 0 0 0 0 0 0 0 0 0 0 0 0 0 0 0 0 0
    2033 2033 2033 2033 2033 2033 2033 2033 2033 2033 2033 2033 2033 2033 2021 2021 2021 2021 2009 2009 2009 2009 2003 1998 1998 1986 1975 1986 1986 1986 1986 1986 1986 1986 1986 1986 1998 1986 1986 1975 1975 1975 1975 1975 1975 1975 1975 1975 1975 1975 1964 1964 1964 1964 1952 1952 1952 1941 1941 1941 1941 1941 1941 1941 1941 1941 1941 1931 1931 1931 1931 1931 1931 1931 1931 1931 1931 1920 1920 1909 1909 1899 1909 1909 1909 1899 1899 1899 1899 1899 1899 1899 1888 1888 1888 1888 1888 1888 1888 1888 1888 1888 1888 1888 1888 1888 1888 1888 1878 1868 1868 1868 1858 1858 1858 1848 1858 1858 1858 1858 1858 1848 1848 1848 1848 1848 1848 1848 1848 1848 1848 1848 1838 1848 1838 1838 1848 1848 1848 1838 1838 1838 1828 1828 1828 1828 1828 1828 1819 1819 1819 1819 1819 1809 1809 1809 1800 1800 1800 1800 1800 1790 1790 1790 1790 1790 1790 1800 1790 1800 1790 1790 1781 1781 1781 1781 1781 1772 1772 1781 1781 1772 1772 1772 1772 1772 1763 1763 1763 1763 1763 1763 1763 1763 1763 1763 1763 1754 1745 1745 1745 1745 1745 1745 1745 1745 1745 1736 1736 1736 1736 1736 1736 1736 1728 1728 1728 1728 1728 1728 1719 1719 1719 1711 1711 1711 1711 1711 1711 1711 1711 1711 1711 1711 1711 1711 1702 1702 1702 1702 1702 1702 1702 1702 1702 1702 1694 1686 1686 1686 1686 1677 1677 1677 1677 1677 1677 1677 1677 1677 1677 1677 1677 1669 1669 1669 1669 1669 1669 1669 1661 1661 1661 1653 1653 1645 1645 1645 1645 1645 1645 1645 1638 1638 1638 1638 1630 1638 1638 1638 1638 1638 1638 1638 1638 1638 1630 1630 1630 1622 1622 1622 1622 1615 1615 1615 1615 1615 1615 1615 1615 1615 1607 1607 1607 1607 1607 1607 1607 1607 1600 1600 1592 1592 1592 1585 1585 1585 1585 1585 1585 1585 1585 1585 1585 1585 1585 1585 1585 1578 1578 1578 1578 1578 1578 1578 1578 1578 1571 1571 1571 1563 1563 1563 1556 1556 1556 1556 1556 1552 1556 1556 1556 1549 1549 1549 1549 1549 1549 1542 1542 1542 1542 1536 1536 1536 1536 1536 1536 1536 1536 1536 1536 1529 1529 1529 1529 1529 1529 1522 1522 1522 1522 1522 1529 1522 1522 1522 1522 1515 1522 1515 1515 1515 1509 1515 1515 1515 1509 1509 1509 1509 1509 1502 1502 1502 1502 1502 1496 1502 1496 1496 1496 1496 1489 1496 1496 1496 1489 1496 1496 1496 1489 1489 1489 1489 1489 1489 1489 1489 1489 1483 0 0 0 0 0 0 0 0 0 0 0 0 0 0 0 0 0 0 0 0 0 0 0 0 0 0 0 0 0 0 0 0 0 0 0 0 0 0
    2033 2033 2033 2033 2033 2033 2033 2033 2033 2033 2033 2033 2021 2021 2021 2021 2021 2021 2021 2009 2009 2009 2009 1998 1998 1986 1975 1975 1975 1975 1986 1986 1986 1986 1986 1986 1986 1986 1986 1986 1975 1975 1975 1975 1975 1975 1975 1975 1975 1975 1975 1964 1964 1964 1964 1952 1952 1941 1941 1941 1941 1941 1941 1941 1941 1941 1941 1931 1931 1931 1931 1931 1931 1931 1931 1931 1920 1920 1920 1909 1909 1909 1909 1899 1899 1899 1899 1899 1899 1899 1899 1899 1899 1888 1899 1888 1888 1888 1888 1888 1888 1888 1888 1888 1878 1878 1878 1878 1868 1858 1858 1868 1868 1858 1858 1858 1858 1858 1858 1858 1858 1858 1858 1848 1848 1848 1848 1848 1848 1848 1848 1848 1848 1848 1848 1848 1848 1848 1848 1848 1838 1838 1828 1828 1828 1828 1828 1828 1819 1819 1819 1819 1819 1809 1809 1809 1800 1800 1800 1800 1790 1790 1790 1790 1790 1790 1790 1800 1800 1790 1790 1790 1790 1781 1781 1781 1781 1772 1772 1781 1781 1772 1772 1772 1772 1772 1772 1763 1763 1763 1763 1763 1763 1763 1763 1754 1754 1745 1745 1745 1745 1745 1745 1745 1736 1745 1745 1736 1736 1736 1736 1736 1736 1736 1728 1728 1728 1728 1728 1728 1719 1719 1728 1719 1711 1711 1711 1711 1711 1711 1711 1711 1711 1711 1702 1702 1702 1702 1702 1702 1702 1702 1702 1702 1702 1694 1686 1686 1686 1686 1686 1677 1677 1677 1677 1677 1677 1677 1677 1677 1677 1677 1669 1669 1669 1669 1669 1669 1669 1669 1661 1653 1661 1653 1645 1645 1645 1645 1645 1645 1645 1645 1638 1638 1638 1638 1638 1638 1638 1638 1638 1638 1638 1638 1638 1638 1630 1630 1630 1622 1622 1622 1615 1615 1615 1615 1615 1615 1615 1615 1607 1607 1607 1607 1607 1607 1607 1607 1607 1607 1600 1600 1600 1592 1592 1592 1585 1585 1585 1585 1585 1585 1585 1585 1585 1585 1585 1585 1585 1578 1578 1578 1578 1578 1578 1578 1578 1578 1571 1571 1563 1563 1563 1563 1563 1556 1556 1556 1556 1556 1556 1556 1556 1549 1549 1549 1549 1549 1549 1542 1542 1536 1542 1536 1536 1529 1536 1536 1536 1536 1536 1536 1536 1529 1529 1529 1529 1529 1529 1529 1529 1529 1522 1522 1529 1529 1529 1529 1522 1522 1522 1522 1515 1515 1509 1515 1515 1515 1515 1509 1509 1509 1509 1502 1502 1502 1502 1502 1502 1502 1502 1502 1502 1496 1496 1496 1496 1496 1489 1489 1496 1496 1489 1489 1489 1489 1489 1489 1489 1483 1483 1483 0 0 0 0 0 0 0 0 0 0 0 0 0 0 0 0 0 0 0 0 0 0 0 0 0 0 0 0 0 0 0 0 0 0 0 0 0 0
    2033 2033 2033 2033 2033 2033 2033 2033 2033 2033 2033 2033 2033 2033 2021 2021 2021 2021 2009 2009 2009 2009 2009 2003 1998 1986 1975 1975 1975 1975 1975 1986 1986 1986 1986 1986 1986 1998 1998 1986 1986 1975 1975 1986 1975 1975 1975 1975 1975 1975 1964 1964 1964 1964 1952 1952 1952 1941 1941 1941 1941 1941 1941 1941 1941 1941 1941 1941 1941 1931 1941 1931 1931 1931 1931 1931 1931 1931 1920 1920 1909 1909 1909 1909 1899 1899 1899 1899 1899 1899 1899 1899 1888 1888 1899 1888 1888 1888 1888 1888 1888 1888 1888 1888 1878 1878 1878 1878 1878 1868 1868 1868 1868 1868 1858 1858 1858 1858 1858 1858 1858 1858 1858 1848 1848 1848 1848 1848 1848 1848 1848 1848 1848 1848 1848 1848 1848 1848 1848 1848 1838 1828 1828 1819 1828 1819 1819 1819 1819 1819 1819 1819 1819 1809 1809 1809 1800 1800 1800 1790 1790 1790 1790 1790 1790 1790 1790 1800 1800 1800 1800 1790 1781 1781 1781 1781 1772 1772 1772 1781 1781 1772 1772 1772 1772 1772 1763 1763 1763 1763 1763 1763 1763 1763 1763 1754 1754 1745 1745 1745 1745 1745 1745 1745 1736 1745 1736 1736 1736 1736 1736 1736 1736 1736 1728 1728 1728 1728 1728 1728 1719 1719 1728 1719 1719 1711 1711 1711 1711 1711 1711 1711 1711 1711 1711 1711 1702 1702 1702 1702 1702 1702 1702 1702 1702 1694 1694 1686 1686 1686 1686 1677 1677 1677 1677 1677 1677 1677 1677 1677 1677 1677 1669 1669 1669 1669 1669 1669 1661 1661 1661 1661 1661 1653 1645 1645 1645 1645 1645 1645 1645 1645 1638 1638 1638 1638 1630 1638 1638 1638 1638 1638 1638 1638 1638 1638 1630 1630 1630 1622 1622 1622 1615 1615 1615 1615 1615 1615 1607 1607 1607 1607 1607 1607 1607 1607 1607 1607 1607 1607 1607 1600 1600 1592 1592 1592 1592 1592 1585 1585 1585 1585 1585 1585 1585 1585 1585 1585 1585 1578 1578 1578 1578 1578 1578 1578 1578 1578 1571 1571 1571 1563 1563 1563 1563 1556 1556 1556 1556 1556 1556 1549 1549 1549 1549 1549 1549 1542 1542 1542 1536 1536 1536 1536 1536 1529 1529 1529 1529 1529 1529 1529 1529 1529 1529 1529 1529 1529 1522 1522 1522 1522 1522 1522 1522 1529 1522 1522 1522 1522 1522 1522 1515 1515 1509 1509 1515 1515 1509 1509 1509 1509 1509 1502 1502 1502 1502 1502 1502 1502 1502 1496 1502 1496 1502 1496 1496 1496 1496 1496 1489 1489 1489 1489 1489 1489 1489 1489 1489 1489 1489 1483 0 0 0 0 0 0 0 0 0 0 0 0 0 0 0 0 0 0 0 0 0 0 0 0 0 0 0 0 0 0 0 0 0 0 0 0 0 0
    2033 2033 2033 2033 2033 2033 2033 2033 2033 2033 2033 2033 2033 2033 2033 2033 2021 2021 2021 2021 2009 2009 2009 2009 1998 1986 1986 1986 1986 1986 1986 1986 1986 1986 1986 1986 1998 1998 1998 1986 1986 1975 1975 1975 1975 1975 1975 1975 1975 1975 1964 1964 1964 1964 1964 1952 1952 1941 1941 1941 1941 1941 1941 1941 1941 1941 1941 1941 1941 1941 1941 1941 1931 1931 1931 1920 1920 1920 1920 1909 1909 1909 1909 1899 1899 1899 1899 1899 1899 1899 1899 1899 1899 1899 1899 1888 1888 1888 1888 1888 1888 1888 1888 1888 1878 1878 1878 1868 1868 1868 1868 1868 1868 1858 1858 1858 1858 1858 1858 1858 1848 1848 1848 1848 1848 1848 1848 1848 1848 1848 1848 1848 1848 1848 1848 1848 1848 1848 1848 1838 1828 1819 1828 1819 1828 1828 1828 1828 1819 1819 1819 1819 1819 1809 1809 1809 1809 1800 1800 1800 1790 1790 1790 1790 1790 1790 1790 1790 1790 1790 1790 1781 1781 1781 1781 1781 1781 1781 1781 1781 1781 1772 1772 1772 1772 1772 1772 1763 1763 1754 1763 1763 1763 1763 1745 1745 1745 1745 1745 1745 1745 1745 1745 1745 1745 1745 1745 1736 1736 1736 1736 1736 1736 1736 1728 1719 1719 1728 1719 1719 1711 1719 1719 1719 1719 1711 1711 1711 1711 1711 1711 1711 1711 1711 1711 1711 1702 1702 1702 1702 1702 1702 1702 1702 1702 1702 1694 1694 1686 1686 1686 1686 1677 1677 1677 1677 1677 1677 1677 1677 1677 1677 1669 1669 1669 1669 1669 1661 1661 1661 1653 1653 1653 1653 1653 1653 1645 1645 1645 1645 1645 1645 1638 1638 1638 1638 1630 1630 1638 1638 1638 1638 1638 1638 1638 1638 1630 1630 1630 1622 1622 1622 1622 1615 1615 1615 1615 1615 1615 1607 1607 1607 1607 1607 1607 1600 1600 1607 1607 1600 1600 1600 1600 1592 1592 1585 1585 1585 1585 1585 1585 1585 1585 1585 1585 1585 1585 1585 1585 1578 1578 1578 1578 1578 1578 1578 1578 1578 1571 1563 1563 1563 1556 1556 1556 1556 1556 1556 1556 1556 1556 1549 1549 1549 1549 1549 1549 1549 1542 1542 1536 1536 1536 1536 1536 1536 1536 1536 1536 1529 1529 1529 1529 1529 1536 1529 1529 1529 1529 1529 1529 1529 1522 1522 1529 1522 1529 1522 1529 1522 1522 1522 1522 1515 1509 1515 1515 1515 1515 1515 1515 1515 1509 1509 1509 1502 1502 1502 1502 1502 1502 1496 1496 1496 1496 1496 1496 1496 1489 1489 1489 1489 1489 1489 1489 1489 1489 1483 1483 1483 1483 1483 0 0 0 0 0 0 0 0 0 0 0 0 0 0 0 0 0 0 0 0 0 0 0 0 0 0 0 0 0 0 0 0 0 0 0 0 0 0
    2045 2045 2045 2033 2033 2033 2033 2033 2033 2033 2033 2033 2033 2033 2033 2033 2021 2021 2021 2021 2021 2021 2009 2009 1998 1986 1986 1986 1975 1975 1975 1986 1986 1986 1986 1986 1986 1986 1986 1986 1986 1986 1975 1975 1975 1975 1975 1975 1975 1964 1964 1952 1964 1964 1964 1952 1952 1941 1941 1941 1941 1941 1941 1941 1941 1941 1941 1941 1941 1941 1941 1941 1931 1931 1931 1931 1931 1920 1909 1909 1909 1909 1909 1909 1899 1909 1909 1899 1909 1909 1899 1899 1899 1888 1899 1888 1888 1888 1888 1888 1888 1888 1888 1888 1888 1888 1878 1878 1868 1868 1868 1868 1858 1858 1858 1858 1858 1858 1858 1858 1858 1848 1848 1848 1848 1848 1848 1848 1848 1838 1848 1838 1838 1848 1848 1848 1848 1848 1848 1848 1848 1838 1819 1828 1828 1828 1828 1828 1819 1819 1819 1819 1819 1819 1819 1809 1809 1809 1800 1800 1800 1790 1790 1800 1800 1790 1790 1790 1790 1790 1790 1790 1781 1781 1781 1781 1781 1781 1781 1781 1781 1772 1772 1772 1772 1763 1763 1763 1763 1754 1754 1754 1754 1754 1745 1745 1745 1745 1745 1745 1745 1745 1745 1745 1745 1745 1745 1736 1736 1736 1736 1736 1736 1728 1728 1719 1719 1719 1719 1711 1711 1711 1711 1711 1711 1711 1711 1711 1711 1711 1711 1711 1711 1711 1711 1711 1711 1711 1711 1702 1702 1702 1702 1702 1702 1702 1694 1694 1694 1686 1686 1677 1677 1677 1677 1677 1677 1677 1677 1677 1677 1677 1669 1669 1669 1669 1669 1669 1661 1661 1661 1653 1653 1653 1653 1653 1645 1645 1645 1645 1645 1645 1638 1638 1638 1638 1638 1638 1638 1638 1638 1638 1638 1638 1638 1630 1630 1630 1630 1622 1622 1622 1615 1615 1615 1615 1615 1615 1615 1607 1607 1607 1607 1607 1607 1607 1607 1607 1607 1607 1607 1600 1600 1600 1592 1592 1592 1592 1585 1585 1585 1585 1585 1578 1585 1585 1585 1585 1585 1578 1578 1578 1578 1578 1578 1578 1578 1571 1571 1571 1563 1563 1563 1563 1556 1556 1556 1556 1556 1556 1549 1549 1549 1549 1549 1549 1549 1549 1549 1542 1542 1542 1542 1542 1536 1536 1536 1536 1536 1529 1529 1529 1529 1529 1529 1529 1529 1529 1529 1529 1529 1522 1522 1529 1522 1529 1529 1529 1529 1529 1529 1522 1522 1515 1509 1515 1515 1515 1509 1509 1515 1509 1509 1509 1502 1502 1502 1502 1502 1502 1496 1496 1496 1496 1496 1496 1496 1496 1489 1489 1489 1489 1489 1489 1489 1489 1483 1483 1483 1483 1483 1483 0 0 0 0 0 0 0 0 0 0 0 0 0 0 0 0 0 0 0 0 0 0 0 0 0 0 0 0 0 0 0 0 0 0 0 0 0 0
    2045 2045 2045 2033 2033 2033 2033 2033 2033 2033 2033 2033 2033 2033 2033 2033 2021 2021 2021 2021 2021 2009 2009 2009 2003 1998 1986 1986 1986 1986 1986 1986 1986 1986 1986 1986 1986 1986 1986 1986 1975 1975 1975 1975 1975 1975 1975 1975 1975 1964 1964 1952 1964 1964 1964 1964 1964 1952 1952 1952 1952 1941 1941 1941 1941 1941 1941 1941 1941 1941 1941 1931 1931 1931 1931 1920 1920 1920 1909 1920 1909 1909 1909 1909 1909 1909 1909 1909 1909 1909 1899 1899 1888 1888 1888 1888 1888 1888 1888 1888 1888 1888 1888 1888 1878 1878 1878 1868 1858 1858 1858 1858 1858 1858 1858 1858 1858 1858 1858 1858 1858 1858 1848 1848 1848 1848 1848 1848 1848 1838 1838 1838 1848 1848 1848 1848 1848 1848 1848 1848 1848 1838 1819 1828 1828 1828 1828 1819 1819 1819 1819 1819 1819 1819 1819 1809 1809 1809 1800 1800 1800 1800 1800 1800 1800 1800 1790 1790 1790 1781 1781 1781 1781 1781 1781 1781 1781 1781 1781 1772 1772 1772 1772 1772 1772 1772 1763 1763 1763 1754 1763 1754 1754 1754 1745 1745 1745 1745 1745 1745 1745 1745 1745 1745 1745 1745 1745 1736 1736 1736 1736 1736 1736 1728 1719 1719 1719 1719 1719 1711 1711 1711 1719 1719 1719 1711 1719 1719 1711 1711 1711 1711 1711 1711 1711 1711 1711 1711 1702 1702 1702 1702 1694 1694 1694 1694 1694 1694 1686 1686 1686 1677 1677 1677 1677 1677 1669 1669 1669 1669 1669 1669 1669 1669 1669 1669 1669 1669 1661 1661 1661 1661 1653 1653 1653 1653 1653 1645 1645 1645 1645 1645 1638 1638 1638 1638 1638 1638 1638 1638 1638 1638 1638 1638 1638 1630 1630 1630 1630 1622 1622 1622 1622 1615 1615 1615 1615 1615 1615 1607 1607 1607 1607 1607 1607 1607 1607 1607 1607 1607 1607 1600 1600 1592 1592 1592 1592 1585 1585 1585 1585 1585 1585 1585 1585 1585 1585 1585 1585 1578 1578 1578 1578 1578 1571 1571 1571 1571 1571 1571 1563 1563 1563 1563 1556 1556 1556 1556 1556 1556 1549 1549 1549 1549 1549 1549 1549 1549 1549 1542 1542 1549 1542 1542 1536 1536 1536 1536 1536 1536 1529 1536 1529 1529 1529 1529 1529 1529 1529 1529 1529 1529 1529 1529 1522 1529 1529 1529 1529 1522 1522 1522 1522 1515 1515 1515 1515 1515 1509 1515 1515 1509 1509 1509 1502 1502 1502 1502 1502 1502 1502 1496 1496 1496 1496 1496 1496 1496 1489 1489 1489 1489 1489 1489 1489 1489 1489 1483 1483 1483 1483 1483 0 0 0 0 0 0 0 0 0 0 0 0 0 0 0 0 0 0 0 0 0 0 0 0 0 0 0 0 0 0 0 0 0 0 0 0 0 0
    2045 2045 2045 2033 2033 2033 2033 2033 2033 2033 2033 2033 2033 2033 2033 2033 2033 2021 2021 2021 2021 2021 2009 2009 2009 1998 1986 1986 1986 1986 1986 1986 1986 1986 1986 1986 1986 1986 1986 1986 1975 1975 1975 1975 1975 1975 1975 1975 1975 1964 1952 1952 1964 1964 1964 1964 1964 1952 1952 1952 1952 1941 1941 1941 1941 1941 1941 1941 1931 1941 1931 1931 1931 1931 1931 1931 1920 1920 1909 1920 1920 1920 1920 1920 1920 1920 1920 1909 1909 1909 1909 1899 1888 1888 1888 1888 1888 1888 1888 1888 1888 1888 1888 1878 1878 1878 1868 1868 1858 1858 1858 1858 1858 1858 1858 1858 1858 1858 1858 1858 1858 1858 1858 1848 1848 1848 1848 1848 1848 1848 1848 1848 1848 1848 1848 1848 1848 1848 1848 1848 1838 1838 1819 1828 1819 1828 1819 1819 1819 1819 1819 1819 1819 1809 1809 1809 1809 1809 1800 1800 1800 1800 1790 1800 1790 1790 1790 1790 1790 1781 1781 1781 1781 1781 1772 1781 1781 1781 1781 1781 1772 1772 1772 1772 1772 1772 1772 1772 1763 1763 1763 1763 1745 1745 1745 1745 1745 1745 1745 1745 1745 1745 1745 1736 1745 1745 1736 1736 1736 1736 1736 1736 1736 1728 1728 1719 1719 1719 1719 1711 1711 1711 1719 1711 1711 1711 1711 1711 1711 1711 1711 1711 1711 1711 1711 1711 1702 1702 1702 1702 1694 1694 1694 1694 1694 1694 1694 1686 1686 1686 1686 1677 1677 1677 1677 1677 1669 1669 1669 1669 1669 1669 1669 1669 1669 1669 1669 1661 1661 1661 1661 1661 1653 1653 1653 1653 1645 1645 1645 1645 1645 1645 1638 1638 1638 1645 1638 1638 1638 1638 1638 1638 1630 1638 1630 1630 1630 1622 1622 1622 1622 1622 1615 1615 1615 1615 1615 1615 1615 1615 1607 1607 1607 1607 1607 1607 1607 1607 1607 1607 1607 1600 1600 1600 1592 1592 1592 1585 1585 1585 1592 1585 1592 1585 1585 1585 1585 1585 1578 1578 1578 1578 1578 1578 1571 1571 1571 1571 1571 1571 1571 1563 1563 1563 1563 1556 1556 1556 1556 1556 1556 1549 1549 1549 1549 1549 1549 1549 1549 1549 1549 1542 1542 1542 1536 1536 1536 1536 1536 1536 1536 1536 1529 1529 1529 1529 1529 1529 1529 1529 1529 1522 1522 1522 1522 1529 1529 1529 1522 1522 1522 1522 1522 1515 1515 1515 1515 1515 1515 1515 1515 1509 1509 1509 1502 1502 1502 1502 1502 1502 1496 1496 1496 1496 1496 1496 1496 1496 1496 1489 1489 1489 1489 1489 1483 1483 1483 1483 1483 1477 1477 1477 0 0 0 0 0 0 0 0 0 0 0 0 0 0 0 0 0 0 0 0 0 0 0 0 0 0 0 0 0 0 0 0 0 0 0 0 0 0
    2045 2045 2045 2033 2033 2033 2033 2033 2033 2033 2033 2033 2033 2033 2033 2033 2033 2033 2021 2021 2021 2021 2009 2009 1998 1998 1986 1986 1986 1986 1986 1986 1986 1986 1986 1986 1986 1986 1986 1986 1986 1986 1975 1975 1975 1975 1975 1975 1975 1964 1964 1964 1975 1964 1964 1964 1964 1952 1952 1952 1952 1941 1941 1941 1941 1941 1941 1941 1931 1931 1931 1931 1931 1931 1931 1920 1920 1920 1909 1909 1909 1909 1909 1909 1909 1909 1920 1909 1909 1909 1909 1899 1899 1899 1899 1888 1888 1888 1888 1888 1888 1888 1888 1878 1878 1878 1868 1868 1868 1858 1858 1858 1858 1858 1858 1858 1858 1858 1858 1858 1858 1858 1858 1848 1858 1848 1848 1848 1848 1848 1848 1848 1848 1838 1848 1838 1838 1838 1838 1838 1838 1828 1828 1819 1819 1819 1819 1819 1819 1809 1809 1819 1819 1809 1809 1809 1809 1809 1800 1800 1800 1800 1790 1800 1790 1790 1790 1790 1790 1781 1781 1781 1781 1781 1781 1781 1781 1781 1781 1781 1781 1772 1772 1772 1772 1772 1763 1763 1754 1763 1754 1754 1749 1749 1749 1749 1749 1749 1745 1745 1745 1745 1745 1745 1745 1745 1736 1736 1736 1736 1736 1736 1736 1736 1728 1728 1728 1728 1719 1719 1719 1711 1719 1719 1711 1711 1711 1711 1711 1711 1702 1702 1711 1711 1702 1702 1702 1702 1702 1694 1694 1694 1694 1686 1686 1694 1694 1686 1686 1686 1686 1686 1677 1677 1677 1677 1669 1669 1669 1669 1669 1669 1669 1669 1669 1669 1661 1661 1661 1661 1661 1661 1653 1653 1645 1645 1645 1645 1645 1645 1645 1645 1638 1638 1638 1638 1638 1638 1638 1638 1638 1638 1630 1630 1630 1630 1630 1622 1622 1622 1622 1622 1615 1615 1615 1615 1615 1615 1615 1615 1615 1607 1607 1607 1607 1607 1607 1607 1607 1607 1607 1600 1600 1592 1592 1592 1592 1585 1585 1585 1585 1585 1585 1585 1585 1585 1585 1585 1578 1578 1578 1578 1578 1571 1571 1571 1571 1571 1571 1571 1571 1563 1563 1563 1563 1556 1556 1556 1556 1556 1556 1549 1549 1549 1549 1549 1549 1549 1549 1549 1549 1542 1542 1542 1536 1536 1536 1536 1536 1536 1536 1536 1536 1536 1536 1529 1529 1529 1529 1529 1529 1529 1522 1522 1522 1529 1529 1529 1529 1522 1522 1522 1522 1522 1522 1522 1515 1515 1515 1515 1515 1509 1509 1502 1502 1502 1502 1502 1502 1502 1502 1496 1496 1496 1496 1496 1496 1489 1489 1489 1489 1489 1483 1483 1483 1483 1483 1483 1483 1477 1483 1477 0 0 0 0 0 0 0 0 0 0 0 0 0 0 0 0 0 0 0 0 0 0 0 0 0 0 0 0 0 0 0 0 0 0 0 0 0 0
    2045 2045 2045 2033 2033 2033 2033 2033 2033 2033 2033 2033 2033 2033 2033 2033 2033 2033 2033 2021 2021 2021 2009 2009 2003 1998 1998 1998 1998 1986 1986 1986 1986 1986 1986 1986 1986 1986 1986 1986 1986 1986 1975 1975 1975 1975 1975 1975 1975 1964 1964 1952 1964 1964 1964 1952 1952 1952 1952 1952 1941 1941 1941 1941 1941 1941 1941 1941 1941 1941 1931 1931 1931 1931 1931 1920 1920 1920 1920 1909 1909 1920 1920 1920 1920 1909 1920 1909 1909 1909 1899 1899 1899 1899 1899 1888 1888 1888 1888 1888 1888 1888 1888 1878 1878 1878 1868 1868 1868 1858 1858 1858 1858 1858 1858 1858 1858 1858 1858 1858 1858 1858 1858 1858 1858 1858 1858 1848 1848 1848 1848 1848 1848 1838 1838 1838 1838 1838 1838 1838 1828 1828 1828 1819 1819 1819 1819 1819 1819 1819 1819 1819 1819 1809 1809 1809 1809 1809 1809 1800 1800 1800 1800 1800 1800 1790 1790 1790 1790 1790 1781 1781 1781 1781 1781 1781 1781 1781 1781 1772 1772 1772 1772 1772 1772 1763 1763 1754 1754 1763 1763 1763 1754 1754 1754 1754 1754 1754 1754 1745 1745 1745 1745 1736 1736 1736 1736 1736 1736 1736 1736 1736 1736 1736 1736 1728 1728 1728 1719 1711 1711 1711 1711 1711 1711 1711 1711 1711 1711 1702 1702 1702 1711 1711 1711 1711 1711 1702 1702 1694 1694 1686 1686 1686 1686 1694 1694 1686 1686 1686 1686 1677 1677 1677 1677 1677 1677 1677 1677 1677 1677 1677 1669 1669 1669 1669 1669 1669 1661 1661 1661 1661 1653 1653 1653 1645 1645 1645 1645 1645 1645 1638 1638 1638 1638 1638 1638 1638 1638 1638 1638 1630 1630 1630 1630 1630 1630 1622 1622 1622 1622 1622 1615 1615 1615 1615 1615 1615 1615 1615 1615 1615 1615 1607 1607 1607 1607 1607 1607 1600 1600 1592 1600 1592 1585 1592 1592 1585 1585 1585 1585 1585 1585 1585 1585 1585 1578 1578 1578 1571 1578 1571 1571 1571 1571 1571 1571 1571 1571 1571 1571 1563 1563 1563 1563 1556 1556 1556 1556 1556 1549 1549 1549 1549 1549 1549 1549 1549 1549 1549 1549 1542 1542 1542 1542 1542 1536 1536 1536 1536 1536 1536 1536 1536 1536 1529 1529 1529 1529 1529 1529 1529 1522 1522 1529 1522 1522 1522 1522 1522 1522 1522 1522 1522 1522 1522 1515 1515 1509 1509 1509 1509 1502 1502 1502 1502 1502 1502 1502 1502 1502 1496 1496 1496 1496 1489 1489 1489 1489 1489 1489 1489 1483 1483 1483 1483 1483 1483 1483 1483 1483 1483 0 0 0 0 0 0 0 0 0 0 0 0 0 0 0 0 0 0 0 0 0 0 0 0 0 0 0 0 0 0 0 0 0 0 0 0 0 0</data></depth>
</opencv_storage>
