<?xml version="1.0"?>
<opencv_storage>
<depth type_id="opencv-matrix">
  <rows>42</rows>
  <cols>480</cols>
  <dt>w</dt>
  <data>
    1515 1515 1515 1515 1515 1515 1522 1522 1522 1522 1522 1522 1522 1522 1522 1522 1529 1522 1529 1529 1529 1536 1536 1536 1536 1536 1536 1536 1536 1536 1536 1542 1542 1536 1536 1542 1542 1542 1542 1542 1542 1542 1542 1542 1542 1542 1542 1542 1542 1542 1542 1542 1542 1542 1542 1542 1542 1542 1542 1542 1542 1542 1542 1542 1542 1542 1542 1542 1549 1549 1549 1549 1556 1556 1556 1556 1556 1556 1556 1556 1556 1556 1556 1556 1556 1556 1556 1556 1556 1556 1549 1549 1556 1549 1549 1549 1549 1556 1563 1028 1028 1028 1025 1025 1025 1025 1025 1025 1025 1025 1025 1025 1025 1025 1025 1553 1556 1556 1563 1563 1563 1563 1571 1571 1571 1571 1571 1563 1563 1563 1563 1563 1563 1563 1571 1571 1571 1571 1571 1578 1578 1578 1578 1571 1578 1571 1571 1578 1578 1578 1585 1578 1578 1578 1578 1578 1585 1585 1585 1585 1585 1592 1592 1592 1592 1592 1592 1592 1592 1592 1592 1592 1592 1585 1428 1428 1428 1428 1428 1428 1434 1434 1434 1592 1592 1592 1592 1592 1600 1600 1600 1600 1600 1600 1600 1600 1600 1600 1600 1600 1600 1600 1600 1600 1600 1600 1600 1600 1600 1600 1607 1600 1607 1607 1607 1607 1607 1607 1607 1600 1600 1600 1607 1600 1607 1607 1607 1607 1607 1615 1615 1615 1622 1622 1622 1622 1622 1622 1622 1622 1622 1622 1622 1622 1615 1607 1607 0 0 1622 1615 1615 1622 1622 1622 1622 1622 1622 1622 1622 1622 1622 1630 1630 1630 1630 1630 1630 1630 1630 1630 1630 1630 1630 0 1066 1066 1066 1063 1063 1063 1063 1063 1063 1063 1063 1066 1066 1066 1066 1638 1645 1645 1645 1645 1645 1645 1638 1645 1638 1645 1645 1645 1645 1653 1653 1653 1645 1645 1645 1645 1653 1653 1645 1645 1653 1653 1653 1653 1653 1653 1653 1653 1653 1653 1653 1653 1661 1661 1661 1661 1661 1661 1661 1669 1669 1669 1669 1669 1661 1661 1661 1661 1661 1661 1661 1661 1669 1669 1669 1669 1677 1677 1669 1669 1669 1669 1669 1669 1669 1669 1669 1669 1669 1669 1669 1669 1669 1669 1677 1677 1677 1677 1677 1677 1677 1686 1686 1686 1686 1686 1686 1686 1686 1686 1686 1686 1686 1686 1686 1686 1686 1686 1686 1686 1686 1686 1686 1686 1686 1686 1686 1694 1694 1694 1694 1694 1694 1694 1694 1694 1694 1694 1686 1686 1694 1694 1694 1694 1694 1694 1694 1694 1694 1702 1702 1702 1702 1702 1702 1702 1711 1719 1719 1719 1719 1719 1719 1719 0 0 0 0 0 0 0 0 0 0 0 0 0 0 0 0 0 0 0 0 0 0 0 0 0 0 0 0 0 0 0 0 0 0 0 0 0 0 0 0 0
    1515 1515 1515 1515 1515 1515 1515 1515 1515 1522 1522 1522 1522 1522 1522 1522 1522 1522 1529 1529 1529 1536 1536 1536 1536 1536 1536 1536 1536 1536 1536 1536 1536 1536 1536 1536 1542 1542 1542 1536 1536 1542 1542 1542 1542 1542 1542 1542 1542 1542 1542 1542 1542 1542 1542 1542 1542 1542 1549 1542 1542 1542 1542 1542 1542 1542 1542 1542 1549 1549 1549 1549 1556 1556 1556 1556 1556 1556 1556 1556 1556 1556 1556 1556 1556 1556 1556 1556 1556 1556 1549 1549 1549 1549 1549 1549 1552 1556 1556 1025 1025 1025 1025 1025 1025 1025 1025 1025 1025 1025 1025 1025 1025 1022 1022 1556 1563 1563 1563 1563 1563 1563 1571 1571 1563 1571 1571 1571 1571 1571 1563 1563 1563 1563 1571 1571 1571 1571 1571 1578 1578 1578 1571 1571 1571 1571 1571 1578 1578 1578 1578 1578 1585 1578 1578 1585 1585 1585 1585 1585 1585 1592 1592 1585 1592 1592 1592 1592 1592 1592 1592 1585 1585 1585 1428 1428 1428 1428 1428 1428 1434 1434 1434 1600 1600 1592 1592 1592 1592 1592 1592 1592 1592 1600 1600 1600 1600 1600 1600 1600 1600 1600 1600 1600 1600 1600 1600 1600 1600 1607 1607 1607 1607 1607 1607 1607 1607 1607 1607 1600 1600 1600 1607 1607 1607 1607 1607 1607 1615 1615 1622 1622 1622 1622 1622 1622 1622 1622 1622 1622 1622 1622 1622 1615 1615 1607 1609 0 0 0 1615 1622 1622 1622 1622 1622 1622 1622 1622 1622 1622 1622 1622 1622 1630 1630 1630 1630 1630 1630 1630 1630 1630 1630 0 1066 1066 1066 1063 1063 1063 1060 1060 1060 1063 1063 1063 1063 1066 1066 1645 1645 1645 1645 1645 1645 1645 1638 1638 1638 1638 1638 1638 1645 1645 1645 1645 1645 1645 1645 1653 1653 1653 1645 1653 1653 1653 1653 1653 1653 1653 1653 1653 1653 1653 1661 1661 1661 1661 1661 1661 1661 1661 1661 1661 1661 1669 1669 1669 1661 1661 1661 1661 1661 1661 1661 1661 1661 1661 1669 1669 1669 1677 1669 1669 1669 1669 1669 1669 1669 1669 1669 1669 1669 1669 1669 1669 1669 1669 1669 1669 1669 1669 1677 1677 1677 1686 1686 1686 1686 1686 1686 1686 1686 1686 1686 1686 1686 1686 1686 1686 1686 1686 1686 1686 1686 1686 1686 1686 1686 1686 1686 1686 1686 1694 1694 1694 1694 1694 1694 1694 1694 1686 1686 1686 1686 1694 1694 1694 1694 1694 1694 1694 1694 1702 1702 1702 1702 1711 1702 1702 1711 1719 1719 1719 1719 1719 1719 1719 0 0 0 0 0 0 0 0 0 0 0 0 0 0 0 0 0 0 0 0 0 0 0 0 0 0 0 0 0 0 0 0 0 0 0 0 0 0 0 0 0
    1515 1515 1515 1515 1515 1515 1522 1522 1522 1522 1522 1522 1522 1522 1522 1522 1522 1522 1529 1529 1529 1536 1536 1536 1536 1536 1536 1536 1536 1536 1536 1536 1536 1536 1536 1536 1536 1542 1536 1536 1536 1536 1542 1542 1542 1542 1536 1542 1542 1542 1542 1542 1542 1542 1542 1542 1542 1542 1542 1549 1549 1549 1549 1542 1542 1542 1542 1542 1542 1542 1549 1549 1549 1556 1556 1556 1556 1556 1556 1556 1556 1556 1556 1556 1556 1556 1556 1549 1549 1549 1549 1549 1549 1549 1549 1549 1556 1556 1290 1028 1028 1025 1025 1025 1025 1025 1025 1025 1025 1025 1028 1025 1025 1025 1563 1563 1563 1563 1571 1571 1571 1571 1563 1563 1563 1571 1571 1571 1563 1571 1571 1571 1571 1571 1571 1571 1571 1571 1571 1578 1578 1578 1578 1578 1578 1571 1571 1571 1578 1578 1578 1578 1585 1585 1578 1585 1585 1585 1585 1585 1592 1592 1592 1592 1592 1592 1592 1592 1592 1592 1592 1592 1592 1585 1510 1428 1422 1428 1428 1428 1434 1434 1517 1600 1600 1592 1592 1592 1592 1592 1592 1592 1592 1592 1592 1600 1600 1600 1600 1600 1600 1600 1600 1600 1600 1600 1600 1600 1600 1607 1607 1607 1607 1607 1607 1607 1600 1600 1600 1600 1600 1600 1607 1607 1607 1607 1607 1615 1615 1615 1622 1622 1622 1622 1622 1622 1622 1622 1622 1622 1622 1622 1622 1622 1615 1615 1612 0 0 0 1615 1615 1622 1622 1622 1622 1622 1622 1622 1622 1622 1622 1622 1622 1630 1630 1630 1630 1630 1630 1630 1630 1630 1630 0 0 1066 1066 1063 1063 1063 1060 1060 1060 1063 1063 1063 1060 1063 1063 1638 1638 1638 1638 1638 1638 1638 1638 1638 1638 1638 1638 1638 1645 1645 1645 1645 1645 1645 1645 1645 1645 1645 1645 1653 1653 1653 1653 1653 1653 1653 1653 1653 1653 1661 1661 1661 1661 1661 1661 1661 1661 1661 1661 1661 1661 1661 1661 1669 1661 1661 1661 1661 1661 1661 1661 1661 1661 1661 1661 1669 1669 1669 1669 1669 1669 1669 1669 1669 1669 1669 1669 1669 1669 1669 1669 1669 1669 1669 1669 1669 1669 1669 1677 1677 1677 1686 1686 1686 1686 1686 1686 1686 1686 1686 1686 1686 1686 1686 1686 1686 1686 1686 1686 1686 1686 1686 1686 1686 1686 1686 1686 1686 1694 1694 1694 1694 1694 1694 1694 1694 1694 1686 1686 1686 1686 1686 1694 1694 1694 1694 1694 1694 1694 1702 1702 1702 1711 1719 1719 1711 1719 1719 1719 1719 1719 1719 1719 1719 0 0 0 0 0 0 0 0 0 0 0 0 0 0 0 0 0 0 0 0 0 0 0 0 0 0 0 0 0 0 0 0 0 0 0 0 0 0 0 0 0
    1515 1515 1515 1515 1515 1515 1522 1522 1522 1522 1522 1522 1522 1522 1522 1522 1522 1522 1522 1522 1529 1529 1529 1529 1536 1536 1536 1536 1536 1536 1536 1536 1536 1536 1536 1536 1536 1536 1536 1536 1536 1536 1536 1536 1536 1542 1536 1542 1542 1542 1542 1542 1542 1542 1542 1542 1542 1542 1542 1542 1549 1549 1542 1542 1542 1542 1542 1542 1542 1542 1549 1549 1549 1556 1556 1556 1556 1556 1556 1556 1556 1556 1556 1556 1556 1556 1556 1549 1549 1549 1549 1549 1549 1549 1549 1549 1556 1556 1025 1025 1025 1025 1025 1025 1025 1025 1025 1025 1025 1025 1028 1025 1025 1025 1563 1563 1563 1563 1571 1571 1571 1571 1563 1563 1563 1563 1571 1571 1571 1571 1571 1571 1571 1571 1571 1571 1571 1571 1571 1578 1571 1571 1571 1571 1571 1571 1571 1571 1578 1578 1578 1578 1578 1578 1578 1578 1585 1585 1585 1585 1585 1585 1592 1592 1592 1592 1592 1585 1592 1592 1592 1592 1592 1585 1592 1422 1422 1428 1428 1428 1434 1434 1600 1600 1592 1592 1592 1592 1592 1600 1592 1592 1600 1600 1600 1600 1600 1600 1600 1600 1600 1600 1600 1600 1600 1600 1607 1607 1607 1607 1615 1607 1607 1607 1615 1607 1607 1600 1600 1600 1600 1607 1607 1607 1607 1615 1615 1615 1615 1622 1622 1622 1622 1622 1622 1622 1622 1622 1622 1622 1615 1615 1615 1615 1615 1615 1615 0 0 0 1615 1622 1622 1622 1622 1622 1622 1622 1622 1622 1622 1622 1622 1622 1630 1630 1630 1630 1630 1630 1630 1630 1622 1622 0 0 1066 1066 1063 1063 1060 1060 1060 1060 1060 1060 1060 1060 1063 1063 1638 1638 1638 1638 1630 1630 1630 1630 1638 1638 1638 1638 1638 1645 1645 1645 1645 1645 1645 1653 1653 1653 1653 1653 1653 1653 1653 1653 1653 1653 1653 1653 1653 1653 1653 1653 1653 1653 1661 1661 1661 1661 1661 1661 1661 1661 1661 1661 1661 1661 1661 1661 1661 1661 1661 1661 1661 1661 1661 1661 1669 1669 1669 1669 1669 1669 1669 1669 1669 1669 1669 1669 1669 1669 1669 1669 1669 1669 1669 1669 1669 1669 1677 1677 1677 1677 1686 1686 1686 1686 1686 1686 1686 1686 1686 1686 1686 1686 1686 1686 1686 1686 1686 1686 1686 1686 1686 1686 1686 1686 1686 1686 1686 1686 1694 1694 1694 1694 1694 1694 1694 1694 1694 1694 1694 1686 1694 1686 1694 1694 1694 1694 1694 1694 1702 1702 1702 1702 1711 1711 1711 1711 1719 1719 1719 1719 1719 1719 1719 0 0 0 0 0 0 0 0 0 0 0 0 0 0 0 0 0 0 0 0 0 0 0 0 0 0 0 0 0 0 0 0 0 0 0 0 0 0 0 0 0
    1515 1515 1515 1515 1515 1515 1515 1515 1522 1522 1522 1522 1522 1522 1522 1522 1522 1522 1522 1522 1522 1529 1529 1529 1536 1536 1536 1536 1536 1536 1536 1536 1536 1536 1536 1536 1536 1536 1536 1536 1536 1536 1536 1536 1536 1536 1536 1536 1542 1542 1542 1542 1542 1542 1542 1542 1542 1542 1542 1542 1542 1542 1542 1542 1542 1542 1542 1542 1542 1542 1549 1549 1549 1549 1556 1556 1556 1556 1556 1556 1556 1563 1563 1556 1556 1556 1549 1549 1549 1549 1549 1549 1549 1549 1549 1549 1549 1549 1025 1025 1025 1022 1022 1025 1022 1025 1022 1025 1025 1025 1028 1025 1025 1025 1563 1563 1563 1571 1571 1571 1563 1571 1563 1563 1563 1563 1571 1571 1571 1571 1571 1571 1571 1571 1571 1571 1578 1578 1578 1578 1578 1571 1571 1571 1571 1571 1571 1578 1578 1578 1578 1578 1585 1585 1585 1585 1585 1585 1585 1585 1585 1585 1585 1585 1585 1585 1585 1585 1592 1592 1592 1592 1592 1592 1422 1507 1422 1428 1428 1428 1428 1517 1600 1600 1592 1592 1592 1592 1592 1592 1592 1592 1592 1592 1592 1600 1600 1600 1600 1600 1600 1600 1600 1600 1607 1607 1607 1607 1607 1607 1607 1607 1607 1607 1607 1607 1600 1600 1600 1600 1600 1607 1607 1607 1607 1615 1615 1615 1615 1622 1622 1622 1622 1622 1622 1622 1622 1622 1622 1622 1622 1615 1615 1615 1615 1615 1615 0 0 0 1615 1615 1622 1622 1622 1622 1622 1622 1622 1622 1622 1622 1622 1622 1622 1630 1630 1630 1630 1630 1630 1630 1622 1622 0 0 0 1066 1063 1063 1060 1060 1060 1060 1060 1060 1060 1063 1063 1063 1063 1638 1638 1638 1638 1638 1638 1638 1638 1638 1638 1638 1638 1645 1645 1645 1645 1645 1645 1653 1653 1653 1653 1653 1653 1653 1645 1653 1653 1653 1653 1653 1653 1653 1653 1653 1653 1653 1653 1661 1661 1661 1661 1661 1661 1661 1661 1661 1661 1661 1661 1661 1661 1661 1661 1661 1661 1661 1661 1661 1661 1669 1669 1669 1669 1669 1669 1669 1669 1669 1669 1669 1669 1669 1669 1661 1669 1669 1669 1669 1669 1669 1677 1677 1677 1677 1677 1677 1677 1677 1686 1686 1686 1686 1686 1686 1686 1686 1686 1686 1686 1686 1686 1686 1686 1686 1686 1686 1686 1686 1686 1686 1686 1686 1694 1694 1694 1694 1694 1694 1694 1694 1694 1694 1686 1686 1686 1694 1694 1694 1694 1694 1694 1702 1702 1711 1702 1702 1711 1711 1711 1711 1719 1719 1719 1719 1719 1719 1711 0 0 0 0 0 0 0 0 0 0 0 0 0 0 0 0 0 0 0 0 0 0 0 0 0 0 0 0 0 0 0 0 0 0 0 0 0 0 0 0 0
    1515 1515 1515 1515 1515 1515 1515 1522 1522 1522 1522 1522 1522 1522 1522 1522 1522 1522 1522 1522 1522 1522 1529 1529 1529 1529 1536 1536 1536 1536 1536 1536 1536 1536 1536 1536 1536 1536 1536 1536 1536 1536 1536 1536 1536 1536 1536 1536 1542 1542 1542 1542 1542 1542 1542 1542 1542 1542 1542 1542 1542 1542 1542 1542 1542 1542 1542 1542 1542 1542 1549 1549 1549 1556 1556 1556 1556 1556 1556 1556 1556 1556 1556 1556 1556 1556 1556 1549 1549 1549 1549 1549 1549 1549 1549 1549 1552 1552 1025 1025 1025 1022 1022 1025 1022 1025 1022 1025 1025 1025 1028 1025 1025 0 1563 1563 1563 1563 1571 1571 1571 1571 1563 1563 1571 1563 1571 1571 1571 1571 1571 1571 1571 1571 1571 1578 1571 1571 1571 1571 1571 1571 1571 1571 1571 1571 1571 1578 1578 1578 1578 1578 1578 1585 1585 1585 1585 1585 1585 1585 1585 1585 1585 1585 1585 1585 1585 1585 1592 1592 1592 1592 1592 1592 1507 1592 1428 1428 1428 1428 1428 1600 1600 1592 1592 1592 1592 1592 1592 1592 1592 1592 1592 1592 1592 1600 1600 1600 1600 1600 1600 1600 1600 1607 1607 1607 1607 1607 1607 1607 1600 1600 1600 1600 1600 1600 1600 1600 1600 1600 1600 1607 1607 1607 1615 1615 1615 1615 1615 1622 1622 1622 1622 1622 1622 1622 1622 1622 1622 1622 1622 1622 1622 1622 1622 1615 1615 0 0 0 1615 1615 1622 1622 1622 1622 1622 1622 1622 1622 1622 1622 1622 1622 1622 1630 1630 1630 1630 1630 1630 1630 1622 1622 1622 0 0 1066 1063 1063 1060 1060 1060 1060 1060 1060 1060 1060 1063 1060 1060 1060 1630 1630 1630 1630 1630 1630 1638 1638 1638 1638 1638 1645 1645 1645 1653 1645 1653 1653 1653 1653 1653 1653 1653 1653 1653 1653 1653 1653 1653 1653 1653 1653 1653 1653 1653 1653 1653 1661 1661 1661 1661 1661 1661 1661 1661 1661 1661 1661 1661 1661 1661 1661 1661 1661 1661 1661 1661 1661 1661 1661 1669 1661 1661 1661 1669 1669 1661 1669 1669 1669 1669 1669 1669 1669 1669 1661 1661 1669 1669 1669 1677 1669 1677 1677 1677 1677 1677 1677 1677 1677 1677 1677 1686 1686 1686 1686 1686 1686 1686 1686 1686 1686 1686 1686 1686 1686 1686 1686 1694 1694 1686 1694 1694 1694 1694 1694 1694 1694 1694 1694 1694 1694 1694 1694 1686 1686 1694 1694 1694 1694 1694 1702 1702 1702 1702 1702 1711 1711 1711 1719 1719 1719 1719 1711 1719 1711 1711 0 0 0 0 0 0 0 0 0 0 0 0 0 0 0 0 0 0 0 0 0 0 0 0 0 0 0 0 0 0 0 0 0 0 0 0 0 0 0 0 0
    1515 1515 1515 1515 1515 1515 1515 1522 1522 1522 1522 1529 1522 1522 1522 1522 1522 1522 1522 1522 1522 1522 1522 1529 1529 1529 1536 1536 1536 1536 1529 1529 1529 1529 1536 1536 1536 1536 1536 1536 1536 1536 1536 1536 1536 1536 1536 1542 1542 1542 1542 1542 1542 1542 1542 1542 1542 1542 1542 1542 1542 1542 1542 1542 1542 1542 1542 1542 1542 1542 1542 1549 1549 1549 1556 1556 1556 1556 1556 1556 1556 1556 1556 1556 1556 1556 1549 1549 1549 1549 1549 1556 1549 1549 1549 1549 1556 1556 1025 1022 1022 1022 1022 1022 1022 1025 1025 1025 1025 1025 1028 1025 1025 0 1571 1571 1563 1563 1571 1571 1563 1571 1563 1563 1571 1571 1571 1571 1571 1571 1571 1571 1571 1571 1571 1571 1578 1578 1571 1571 1571 1571 1571 1571 1578 1571 1578 1578 1578 1578 1578 1578 1578 1578 1585 1585 1585 1585 1585 1592 1585 1585 1585 1585 1585 1585 1585 1585 1592 1592 1592 1585 1592 1592 1592 1592 1434 1428 1428 1428 1428 1592 1592 1592 1592 1592 1592 1592 1592 1592 1592 1592 1592 1592 1592 1592 1600 1600 1600 1600 1600 1600 1607 1607 1607 1607 1607 1607 1607 1607 1607 1600 1600 1607 1607 1600 1600 1607 1607 1607 1607 1607 1607 1615 1615 1615 1615 1615 1615 1615 1622 1622 1622 1622 1622 1622 1622 1622 1622 1622 1622 1622 1622 1622 1622 1615 1622 1615 1615 0 1615 1615 1622 1622 1622 1622 1622 1622 1622 1622 1622 1622 1622 1622 1622 1622 1622 1630 1630 1630 1630 1630 1622 1622 1622 0 0 0 1060 1060 1056 1056 1056 1056 1056 1056 1056 1060 1060 1056 1060 1060 1630 1630 1630 1630 1630 1630 1638 1638 1638 1638 1638 1645 1645 1645 1645 1645 1653 1653 1653 1653 1653 1653 1653 1653 1653 1653 1653 1661 1653 1653 1653 1653 1653 1653 1653 1653 1653 1661 1661 1661 1661 1661 1661 1661 1661 1661 1661 1661 1661 1661 1661 1661 1661 1661 1661 1661 1661 1661 1661 1661 1661 1661 1661 1661 1661 1661 1661 1669 1669 1669 1669 1669 1669 1669 1669 1669 1669 1669 1669 1669 1677 1677 1677 1677 1677 1677 1677 1677 1677 1677 1677 1677 1677 1686 1686 1686 1686 1686 1686 1686 1686 1686 1686 1686 1686 1686 1686 1686 1694 1694 1686 1686 1694 1686 1694 1694 1694 1694 1694 1694 1694 1694 1694 1694 1694 1694 1694 1694 1694 1694 1694 1694 1702 1702 1702 1711 1711 1711 1719 1719 1719 1711 1711 1711 1711 1711 1711 0 0 0 0 0 0 0 0 0 0 0 0 0 0 0 0 0 0 0 0 0 0 0 0 0 0 0 0 0 0 0 0 0 0 0 0 0 0 0 0 0
    1515 1515 1515 1515 1515 1515 1515 1515 1522 1522 1522 1522 1522 1522 1522 1522 1522 1522 1522 1522 1522 1522 1522 1529 1529 1529 1536 1536 1536 1536 1529 1529 1529 1529 1529 1536 1536 1536 1536 1536 1536 1536 1536 1536 1536 1536 1542 1542 1542 1542 1542 1542 1542 1542 1542 1542 1542 1542 1542 1542 1542 1542 1542 1542 1542 1542 1542 1542 1542 1542 1549 1549 1549 1549 1556 1556 1556 1556 1556 1556 1556 1556 1556 1556 1556 1556 1549 1549 1549 1549 1549 1549 1549 1549 1542 1549 1542 1542 1556 1022 1022 1022 1022 1022 1022 1022 1022 1025 1025 1025 1025 1025 1025 0 1571 1563 1563 1563 1563 1563 1563 1563 1571 1571 1571 1571 1571 1571 1571 1571 1571 1571 1571 1571 1571 1578 1571 1571 1571 1571 1571 1571 1571 1571 1571 1571 1571 1571 1571 1571 1571 1578 1578 1578 1585 1585 1585 1585 1585 1592 1585 1592 1592 1585 1592 1592 1592 1585 1592 1592 1592 1592 1592 1592 1592 1592 1434 1428 1428 1428 1431 1592 1592 1592 1592 1592 1592 1592 1592 1592 1592 1592 1592 1592 1592 1592 1600 1600 1600 1600 1600 1607 1607 1607 1607 1615 1615 1607 1607 1607 1607 1607 1607 1607 1607 1607 1607 1607 1607 1607 1607 1607 1607 1615 1615 1615 1615 1615 1615 1622 1622 1622 1622 1622 1622 1622 1622 1622 1622 1622 1622 1622 1622 1622 1622 1622 1622 1622 1622 0 1622 1615 1622 1622 1622 1622 1622 1622 1622 1622 1622 1622 1622 1622 1622 1622 1622 1630 1630 1630 1630 1622 1622 1622 1622 1622 0 0 1060 1060 1056 1056 1056 1056 1056 1053 1056 1056 1056 1056 1060 1060 1630 1630 1630 1630 1630 1630 1638 1638 1638 1638 1638 1645 1645 1645 1645 1653 1653 1653 1653 1653 1653 1653 1653 1653 1653 1653 1653 1653 1653 1653 1653 1653 1653 1653 1653 1653 1653 1661 1661 1661 1661 1661 1661 1661 1661 1653 1661 1661 1661 1661 1661 1661 1661 1661 1661 1661 1661 1661 1661 1661 1661 1661 1661 1661 1661 1661 1661 1661 1669 1669 1669 1669 1669 1669 1669 1669 1669 1669 1669 1669 1677 1677 1677 1677 1677 1677 1677 1669 1677 1677 1677 1677 1677 1677 1686 1686 1686 1686 1686 1686 1686 1686 1686 1686 1686 1686 1686 1686 1694 1686 1686 1686 1694 1694 1694 1694 1694 1694 1694 1694 1694 1694 1694 1694 1694 1694 1694 1694 1694 1694 1694 1702 1702 1702 1702 1711 1711 1711 1711 1711 1719 1719 1719 1711 1711 1719 1711 0 0 0 0 0 0 0 0 0 0 0 0 0 0 0 0 0 0 0 0 0 0 0 0 0 0 0 0 0 0 0 0 0 0 0 0 0 0 0 0 0
    1515 1515 1515 1515 1515 1515 1515 1515 1522 1522 1522 1529 1529 1522 1522 1522 1522 1522 1522 1522 1522 1522 1529 1529 1529 1529 1529 1536 1536 1529 1529 1529 1529 1529 1529 1529 1529 1529 1536 1529 1536 1536 1536 1536 1536 1536 1536 1542 1542 1542 1542 1542 1542 1542 1542 1542 1542 1542 1542 1542 1542 1542 1542 1542 1542 1542 1542 1542 1542 1542 1549 1549 1549 1549 1556 1556 1563 1556 1556 1556 1556 1556 1556 1556 1556 1556 1549 1549 1549 1549 1549 1549 1549 1549 1536 1536 1536 1536 1019 1019 1019 1019 1019 1022 1022 1022 1022 1022 1025 1025 1025 1025 1025 0 1571 1571 1563 1563 1563 1563 1571 1571 1571 1571 1571 1571 1571 1571 1571 1571 1571 1571 1571 1571 1571 1571 1571 1571 1571 1571 1571 1571 1571 1578 1578 1578 1578 1578 1578 1578 1578 1578 1578 1578 1578 1585 1585 1585 1585 1592 1585 1592 1592 1592 1592 1585 1592 1585 1592 1592 1592 1592 1592 1592 1600 1434 1428 1428 1434 1434 1434 1592 1592 1592 1592 1592 1592 1592 1592 1592 1592 1592 1592 1592 1592 1592 1600 1600 1600 1600 1600 1600 1607 1607 1607 1607 1607 1607 1607 1607 1600 1600 1600 1600 1600 1600 1600 1600 1600 1607 1607 1607 1607 1615 1607 1615 1615 1615 1615 1622 1622 1622 1622 1622 1622 1622 1622 1622 1622 1622 1622 1622 1622 1622 1622 1622 1622 1622 1615 1622 1615 1622 1622 1622 1622 1622 1622 1622 1622 1622 1622 1622 1622 1622 1622 1622 1622 1622 1630 1630 1630 1630 1622 1622 1622 1630 0 0 1060 1060 1056 1056 1056 1056 1056 1053 1056 1056 1056 1056 1060 1060 1630 1630 1630 1630 1630 1630 1638 1638 1638 1638 1638 1645 1645 1645 1645 1645 1653 1653 1653 1645 1653 1653 1653 1653 1653 1661 1661 1661 1653 1653 1653 1653 1653 1653 1653 1653 1653 1661 1661 1661 1661 1661 1661 1661 1661 1661 1661 1661 1661 1661 1661 1661 1661 1661 1661 1661 1661 1661 1661 1661 1661 1661 1661 1661 1661 1661 1661 1661 1661 1661 1661 1669 1661 1669 1669 1669 1669 1669 1669 1669 1669 1669 1677 1677 1677 1669 1669 1669 1677 1677 1677 1677 1677 1677 1677 1686 1686 1686 1686 1686 1686 1686 1686 1686 1686 1686 1686 1686 1686 1686 1686 1686 1686 1686 1686 1686 1694 1694 1694 1694 1694 1694 1694 1694 1694 1694 1694 1694 1694 1702 1694 1702 1702 1702 1702 1702 1711 1711 1711 1711 1711 1711 1711 1711 1711 1711 1711 0 0 0 0 0 0 0 0 0 0 0 0 0 0 0 0 0 0 0 0 0 0 0 0 0 0 0 0 0 0 0 0 0 0 0 0 0 0 0 0 0
    1515 1515 1515 1515 1515 1515 1522 1522 1522 1529 1529 1529 1529 1522 1522 1522 1522 1522 1515 1522 1522 1522 1522 1529 1529 1529 1536 1536 1536 1536 1529 1529 1529 1529 1529 1529 1529 1529 1529 1529 1536 1536 1529 1536 1536 1536 1536 1542 1542 1542 1542 1542 1542 1542 1542 1542 1542 1542 1542 1542 1542 1542 1536 1536 1536 1536 1542 1542 1542 1542 1549 1549 1549 1549 1556 1556 1556 1556 1556 1556 1556 1556 1556 1556 1556 1556 1549 1549 1549 1549 1549 1549 1549 1542 1542 1542 1542 1542 1019 1019 1019 1019 1019 1019 1019 1019 1019 1022 1022 1025 1025 1025 1025 0 1563 1563 1563 1563 1563 1563 1571 1563 1571 1571 1571 1571 1571 1571 1571 1571 1571 1571 1571 1571 1571 1571 1571 1571 1571 1571 1571 1571 1578 1578 1578 1578 1578 1578 1578 1571 1571 1571 1571 1578 1578 1578 1585 1585 1585 1585 1585 1592 1592 1592 1585 1585 1592 1585 1592 1592 1592 1592 1592 1592 1600 1434 1434 1434 1434 1434 1434 1434 1592 1592 1592 1592 1592 1592 1592 1592 1592 1592 1600 1600 1600 1600 1600 1600 1600 1600 1600 1607 1607 1607 1607 1607 1607 1607 1607 1600 1600 1600 1600 1600 1600 1600 1600 1600 1607 1607 1607 1607 1607 1607 1607 1615 1615 1615 1615 1622 1622 1622 1622 1622 1622 1622 1622 1622 1622 1622 1622 1622 1622 1622 1622 1622 1622 1622 1615 1622 1615 1615 1615 1615 1615 1622 1622 1622 1622 1622 1622 1622 1622 1622 1622 1622 1622 1630 1630 1630 1630 1630 1622 1630 1630 1630 1630 0 1060 1060 1056 1056 1056 1056 1053 1053 1056 1056 1056 1056 1060 1060 1060 1630 1630 1630 1630 1630 1630 1630 1630 1630 1638 1638 1645 1645 1645 1645 1653 1653 1653 1653 1653 1653 1653 1653 1653 1661 1661 1661 1661 1653 1653 1653 1653 1653 1653 1653 1653 1653 1653 1653 1661 1661 1661 1661 1661 1653 1661 1661 1661 1661 1661 1661 1661 1661 1661 1661 1661 1661 1669 1661 1661 1661 1661 1661 1661 1661 1661 1661 1661 1661 1661 1669 1669 1669 1669 1669 1669 1669 1669 1669 1669 1669 1669 1669 1677 1669 1677 1677 1677 1677 1677 1677 1677 1677 1677 1677 1677 1677 1677 1677 1677 1677 1677 1686 1686 1686 1686 1686 1686 1686 1686 1694 1694 1686 1686 1686 1694 1694 1694 1694 1694 1694 1694 1694 1694 1694 1694 1694 1694 1694 1702 1702 1702 1702 1702 1702 1702 1702 1702 1702 1702 1702 1711 1711 1711 1711 1711 0 0 0 0 0 0 0 0 0 0 0 0 0 0 0 0 0 0 0 0 0 0 0 0 0 0 0 0 0 0 0 0 0 0 0 0 0 0 0 0 0
    1515 1515 1515 1515 1515 1515 1515 1522 1522 1522 1522 1522 1522 1522 1522 1522 1522 1522 1515 1522 1522 1522 1522 1529 1529 1529 1536 1536 1536 1536 1529 1529 1529 1529 1529 1529 1529 1536 1536 1536 1536 1536 1536 1536 1536 1536 1542 1542 1536 1542 1542 1542 1542 1542 1542 1542 1542 1542 1542 1542 1542 1542 1536 1536 1536 1542 1542 1542 1542 1542 1542 1549 1549 1549 1549 1556 1556 1556 1549 1549 1549 1549 1549 1549 1549 1549 1549 1549 1549 1549 1549 1549 1549 1536 1542 1542 1542 1542 1019 1019 1019 1019 1019 1019 1019 1019 1019 1022 1025 1025 1025 1025 0 1556 1563 1563 1563 1563 1563 1563 1563 1563 1563 1571 1571 1571 1571 1571 1571 1571 1571 1571 1571 1571 1571 1563 1571 1571 1571 1571 1571 1578 1578 1578 1578 1578 1578 1578 1571 1571 1571 1571 1571 1571 1578 1578 1585 1585 1585 1585 1592 1592 1592 1585 1585 1585 1592 1592 1592 1592 1592 1592 1592 1600 1600 1434 1434 1434 1434 1434 1434 1434 1592 1592 1592 1592 1592 1592 1592 1592 1592 1592 1592 1592 1592 1600 1600 1600 1600 1600 1600 1607 1607 1607 1607 1607 1607 1607 1607 1600 1600 1600 1600 1600 1600 1600 1600 1600 1600 1607 1607 1607 1607 1607 1607 1607 1607 1615 1615 1615 1615 1622 1622 1622 1622 1622 1622 1622 1622 1622 1622 1622 1615 1622 1622 1622 1622 1622 1615 1615 1615 1615 1615 1615 1615 1615 1615 1622 1622 1622 1622 1622 1622 1622 1622 1622 1622 1622 1622 1630 1630 1630 1630 1630 1630 1630 1638 0 1060 1056 1056 1056 1056 1056 1053 1053 1053 1056 1056 1056 1060 1638 1060 1630 1630 1630 1638 1638 1638 1638 1638 1630 1638 1638 1638 1645 1645 1645 1653 1645 1645 1645 1645 1645 1653 1645 1653 1653 1653 1653 1653 1653 1653 1653 1653 1653 1653 1653 1653 1661 1661 1661 1661 1661 1661 1661 1661 1653 1661 1661 1661 1661 1661 1661 1661 1661 1661 1669 1669 1661 1661 1661 1661 1661 1661 1661 1661 1661 1661 1661 1661 1661 1661 1661 1669 1669 1669 1669 1669 1669 1669 1669 1669 1669 1669 1669 1669 1669 1669 1669 1677 1677 1677 1677 1677 1677 1686 1686 1677 1677 1677 1677 1677 1677 1677 1686 1686 1686 1686 1686 1694 1686 1694 1694 1694 1686 1686 1686 1694 1686 1686 1694 1694 1694 1694 1694 1694 1694 1694 1694 1694 1694 1694 1694 1694 1702 1702 1702 1702 1702 1702 1702 1702 1702 1711 1711 1711 1711 1711 0 0 0 0 0 0 0 0 0 0 0 0 0 0 0 0 0 0 0 0 0 0 0 0 0 0 0 0 0 0 0 0 0 0 0 0 0 0 0 0 0
    1515 1515 1515 1515 1515 1515 1522 1522 1522 1522 1522 1522 1522 1522 1515 1515 1515 1515 1515 1515 1522 1522 1522 1529 1529 1536 1536 1536 1536 1536 1536 1529 1529 1529 1529 1529 1529 1529 1529 1529 1536 1536 1529 1536 1536 1536 1536 1536 1536 1542 1536 1542 1542 1542 1542 1542 1542 1542 1542 1542 1542 1536 1536 1536 1536 1536 1536 1542 1542 1542 1542 1549 1549 1549 1549 1556 1556 1556 1552 1549 1549 1549 1549 1549 1549 1549 1549 1549 1549 1549 1549 1549 1549 1542 1542 1542 1549 1019 1019 1019 1019 1019 1019 1019 1019 1019 1019 1022 1025 1025 1025 1028 0 1556 1563 1563 1563 1563 1563 1563 1563 1563 1571 1571 1563 1571 1571 1571 1571 1571 1571 1571 1571 1571 1563 1563 1571 1571 1571 1571 1571 1571 1571 1578 1578 1578 1578 1571 1571 1571 1571 1571 1571 1571 1571 1578 1578 1585 1585 1585 1585 1592 1592 1592 1585 1592 1592 1592 1592 1592 1592 1592 1592 1592 1592 1434 1434 1434 1434 1434 1434 1440 1592 1592 1592 1592 1592 1592 1592 1592 1592 1592 1600 1592 1600 1600 1600 1600 1600 1600 1600 1600 1607 1607 1607 1607 1607 1607 1600 1600 1600 1600 1600 1600 1600 1600 1600 1600 1600 1607 1607 1607 1607 1607 1607 1607 1615 1615 1615 1615 1615 1622 1622 1622 1622 1622 1622 1622 1622 1622 1622 1622 1615 1615 1615 1622 1615 1615 1607 1615 1607 1607 1615 1607 1615 1615 1615 1615 1622 1622 1622 1622 1622 1622 1622 1622 1622 1622 1630 1630 1630 1630 1630 1630 1630 1630 1638 1645 1056 1056 1053 1056 1056 1053 1053 1053 1053 1056 1056 1056 1056 1638 1056 1630 1638 1630 1630 1638 1630 1630 1630 1630 1638 1638 1638 1638 1645 1638 1638 1638 1638 1638 1645 1645 1645 1653 1653 1653 1653 1653 1653 1653 1653 1653 1653 1653 1653 1653 1653 1653 1661 1661 1661 1661 1661 1661 1661 1661 1661 1661 1661 1661 1661 1661 1661 1661 1661 1669 1669 1669 1669 1661 1661 1661 1661 1661 1661 1661 1661 1661 1661 1661 1661 1661 1661 1661 1661 1661 1661 1669 1669 1669 1669 1669 1669 1669 1669 1669 1669 1669 1677 1677 1677 1677 1677 1677 1677 1686 1677 1677 1677 1677 1677 1686 1677 1686 1686 1686 1686 1686 1694 1686 1686 1686 1686 1686 1686 1686 1686 1686 1694 1694 1694 1694 1694 1694 1694 1694 1694 1694 1694 1694 1694 1694 1694 1694 1694 1702 1702 1702 1702 1702 1702 1711 1711 1711 1719 1719 1719 0 0 0 0 0 0 0 0 0 0 0 0 0 0 0 0 0 0 0 0 0 0 0 0 0 0 0 0 0 0 0 0 0 0 0 0 0 0 0 0 0
    1515 1515 1515 1515 1515 1515 1522 1522 1522 1522 1522 1522 1522 1522 1515 1515 1515 1515 1515 1522 1522 1529 1529 1529 1529 1536 1536 1536 1536 1536 1536 1536 1536 1529 1529 1529 1529 1529 1529 1536 1536 1536 1536 1536 1536 1536 1542 1536 1536 1542 1542 1536 1542 1542 1542 1542 1542 1542 1542 1542 1542 1536 1536 1536 1536 1536 1536 1542 1542 1542 1542 1549 1549 1549 1549 1556 1556 1549 1556 1549 1549 1549 1549 1549 1549 1549 1549 1549 1549 1549 1549 1549 1549 1542 1542 1549 1016 1019 1016 1016 1016 1016 1016 1016 1016 1016 1019 1022 1022 1025 1025 1028 0 1563 1563 1563 1563 1563 1563 1563 1563 1563 1563 1563 1563 1571 1571 1571 1571 1571 1571 1571 1571 1571 1563 1563 1563 1571 1571 1571 1571 1578 1578 1578 1578 1578 1578 1578 1571 1571 1571 1571 1571 1571 1571 1578 1578 1578 1585 1585 1585 1592 1592 1592 1592 1592 1592 1592 1592 1592 1592 1592 1592 1592 1592 1434 1434 1434 1434 1434 1434 1434 1592 1592 1592 1592 1592 1592 1592 1592 1600 1600 1600 1600 1600 1600 1600 1600 1600 1600 1600 1600 1600 1600 1600 1600 1607 1607 1600 1600 1600 1600 1600 1600 1600 1600 1600 1600 1600 1600 1607 1607 1607 1607 1607 1607 1615 1615 1615 1615 1615 1622 1615 1615 1615 1615 1615 1615 1622 1622 1622 1622 1615 1615 1615 1615 1615 1615 1615 1615 1615 1615 1607 1607 1615 1615 1615 1615 1615 1622 1622 1622 1622 1622 1622 1622 1622 1622 1630 1630 1630 1630 1630 1630 1630 1630 1638 1645 1056 1056 1056 1053 1056 1053 1056 1053 1053 1056 1056 1056 1060 1349 1638 1638 1638 1638 1638 1638 1638 1630 1638 1638 1638 1638 1638 1638 1645 1645 1645 1638 1638 1638 1645 1638 1645 1645 1653 1653 1653 1653 1653 1653 1653 1653 1653 1653 1653 1653 1653 1653 1653 1653 1661 1661 1653 1661 1661 1661 1661 1661 1661 1661 1661 1661 1661 1661 1661 1669 1669 1661 1661 1661 1661 1661 1661 1661 1661 1661 1661 1661 1661 1661 1661 1661 1661 1661 1661 1661 1661 1669 1669 1669 1669 1669 1669 1669 1677 1669 1669 1677 1677 1686 1686 1686 1686 1686 1686 1686 1677 1677 1677 1677 1677 1677 1677 1686 1686 1686 1686 1686 1686 1686 1686 1686 1686 1686 1686 1686 1686 1686 1686 1694 1686 1694 1694 1694 1694 1694 1694 1694 1694 1694 1694 1694 1694 1702 1702 1702 1702 1702 1702 1702 1702 1711 1711 1711 1711 1711 1719 0 0 0 0 0 0 0 0 0 0 0 0 0 0 0 0 0 0 0 0 0 0 0 0 0 0 0 0 0 0 0 0 0 0 0 0 0 0 0 0 0
    1515 1515 1515 1515 1515 1515 1522 1522 1522 1522 1522 1522 1522 1522 1515 1515 1515 1515 1515 1522 1522 1529 1529 1529 1536 1536 1536 1536 1536 1536 1536 1536 1536 1536 1529 1529 1529 1536 1536 1536 1536 1536 1536 1536 1536 1536 1536 1536 1536 1542 1542 1542 1542 1542 1542 1542 1542 1542 1542 1542 1536 1536 1536 1536 1536 1536 1536 1542 1542 1542 1542 1542 1542 1549 1549 1556 1556 1552 1556 1552 1552 1549 1549 1549 1549 1542 1542 1542 1549 1549 1549 1549 1549 1542 1549 1013 1013 1016 1016 1016 1016 1016 1016 1016 1016 1016 1019 1022 1022 1025 1025 1028 0 1563 1563 1563 1563 1563 1563 1563 1563 1563 1563 1563 1563 1571 1571 1571 1571 1571 1571 1571 1571 1571 1571 1571 1571 1571 1571 1571 1571 1571 1571 1578 1578 1578 1578 1578 1571 1571 1571 1571 1571 1571 1571 1571 1578 1578 1578 1585 1585 1585 1585 1592 1585 1585 1592 1592 1592 1592 1592 1592 1592 1592 1592 1434 1434 1434 1434 1434 1434 1440 1592 1592 1592 1592 1592 1600 1592 1592 1600 1600 1600 1600 1600 1600 1600 1600 1600 1600 1600 1600 1600 1600 1600 1600 1600 1600 1600 1600 1600 1600 1600 1600 1600 1600 1600 1600 1600 1600 1600 1607 1607 1607 1607 1607 1615 1615 1615 1622 1615 1622 1622 1622 1615 1615 1615 1615 1622 1622 1622 1622 1615 1615 1615 1615 1615 1615 1607 1607 1615 1615 1607 1615 1615 1615 1615 1615 1615 1622 1622 1622 1622 1622 1622 1622 1622 1622 1630 1630 1630 1630 1630 1630 1630 1630 1630 1638 1056 1056 1056 1053 1056 1053 1056 1053 1053 1056 1056 1056 1060 1060 1056 1638 1638 1638 1638 1638 1630 1630 1630 1638 1638 1638 1638 1638 1638 1638 1638 1638 1638 1638 1638 1638 1645 1645 1653 1653 1653 1653 1653 1653 1653 1653 1653 1653 1653 1653 1653 1653 1653 1653 1653 1661 1653 1661 1661 1661 1661 1661 1661 1661 1661 1661 1661 1661 1661 1661 1661 1661 1661 1661 1661 1661 1661 1661 1661 1661 1661 1661 1661 1661 1661 1661 1661 1661 1661 1661 1661 1661 1661 1669 1669 1669 1669 1669 1677 1669 1669 1677 1677 1677 1677 1677 1677 1686 1686 1686 1677 1677 1677 1677 1677 1677 1677 1686 1686 1686 1686 1694 1686 1686 1686 1686 1686 1686 1686 1686 1686 1686 1686 1694 1694 1694 1694 1694 1694 1694 1694 1694 1694 1694 1694 1694 1694 1694 1702 1702 1702 1702 1702 1702 1702 1702 1702 1711 1711 1711 1711 0 0 0 0 0 0 0 0 0 0 0 0 0 0 0 0 0 0 0 0 0 0 0 0 0 0 0 0 0 0 0 0 0 0 0 0 0 0 0 0 0
    1515 1515 1515 1515 1515 1522 1522 1522 1522 1522 1522 1522 1522 1522 1522 1522 1522 1522 1522 1522 1522 1529 1529 1529 1536 1536 1536 1536 1536 1536 1536 1536 1536 1536 1536 1529 1529 1529 1536 1536 1536 1536 1536 1536 1536 1536 1536 1536 1536 1536 1536 1536 1536 1536 1542 1542 1542 1542 1542 1542 1542 1542 1536 1542 1542 1542 1542 1542 1542 1542 1549 1549 1549 1549 1549 1556 1556 1556 1556 1556 1556 1549 1549 1549 1549 1542 1542 1542 1542 1542 1549 1549 1549 1542 1549 1010 1013 1016 1016 1016 1016 1016 1016 1016 1016 1016 1019 1019 1022 1025 1025 0 0 1563 1563 1563 1563 1563 1563 1563 1563 1563 1563 1563 1571 1571 1571 1571 1563 1571 1571 1571 1571 1571 1571 1571 1571 1571 1571 1571 1571 1571 1578 1578 1578 1578 1578 1578 1571 1571 1571 1571 1571 1571 1571 1578 1578 1578 1578 1585 1585 1585 1585 1585 1585 1585 1592 1592 1592 1592 1592 1592 1592 1592 1434 1440 1434 1434 1440 1440 1440 1440 1592 1592 1592 1600 1600 1600 1592 1592 1600 1600 1600 1600 1600 1600 1600 1600 1600 1600 1600 1600 1600 1600 1600 1600 1600 1600 1600 1600 1600 1600 1600 1600 1600 1600 1600 1600 1600 1600 1600 1600 1607 1607 1607 1607 1607 1615 1615 1615 1615 1622 1615 1622 1615 1615 1615 1615 1622 1622 1622 1622 1622 1615 1615 1615 1615 1615 1607 1607 1607 1607 1607 1607 1615 1615 1615 1615 1615 1622 1622 1622 1622 1622 1622 1622 1622 1622 1630 1630 1630 1630 1630 1630 1630 1630 1630 1630 1053 1053 1056 1053 1053 1056 1056 1056 1056 1056 1056 1056 1060 1056 1056 1638 1645 1638 1638 1638 1638 1638 1638 1638 1638 1638 1638 1638 1638 1638 1638 1638 1638 1638 1645 1645 1645 1645 1653 1653 1653 1653 1653 1653 1653 1653 1653 1653 1653 1653 1653 1653 1653 1653 1661 1661 1661 1661 1661 1661 1661 1661 1661 1661 1661 1661 1661 1661 1661 1661 1661 1661 1661 1661 1661 1661 1661 1661 1661 1661 1661 1661 1661 1661 1661 1661 1661 1661 1661 1661 1661 1661 1661 1669 1669 1669 1669 1669 1669 1669 1669 1677 1677 1677 1677 1677 1677 1686 1677 1686 1677 1677 1677 1677 1677 1677 1677 1686 1686 1686 1686 1694 1686 1686 1686 1686 1686 1686 1686 1686 1686 1686 1686 1686 1694 1694 1694 1694 1694 1694 1694 1694 1694 1694 1694 1694 1694 1702 1702 1702 1702 1702 1702 1702 1702 1702 1711 1702 1711 1702 1702 0 0 0 0 0 0 0 0 0 0 0 0 0 0 0 0 0 0 0 0 0 0 0 0 0 0 0 0 0 0 0 0 0 0 0 0 0 0 0 0 0
    1515 1515 1515 1515 1515 1522 1522 1522 1522 1522 1515 1515 1522 1522 1515 1515 1515 1515 1515 1522 1522 1529 1529 1529 1536 1536 1536 1536 1536 1536 1536 1536 1536 1536 1536 1536 1536 1536 1536 1536 1536 1536 1536 1536 1536 1536 1536 1536 1536 1536 1536 1536 1536 1536 1542 1542 1542 1542 1542 1542 1542 1542 1542 1542 1542 1536 1536 1542 1542 1542 1542 1542 1542 1549 1549 1549 1549 1549 1549 1549 1549 1549 1542 1542 1542 1542 1542 1542 1542 1549 1549 1549 1549 1549 1549 1010 1013 1016 1013 1016 1016 1016 1016 1016 1016 1016 1019 1019 1022 1025 1028 0 1563 1563 1563 1563 1563 1563 1563 1563 1563 1563 1563 1563 1563 1571 1571 1571 1563 1571 1571 1571 1571 1571 1571 1571 1571 1571 1571 1571 1571 1571 1571 1571 1571 1571 1578 1571 1571 1571 1571 1571 1571 1571 1571 1571 1578 1578 1578 1585 1585 1585 1585 1585 1585 1585 1592 1592 1592 1592 1592 1592 1592 1592 1434 1434 1434 1434 1434 1440 1440 1440 1592 1592 1592 1592 1592 1600 1592 1592 1600 1600 1600 1600 1600 1600 1600 1600 1600 1600 1600 1600 1600 1600 1600 1600 1600 1600 1600 1600 1600 1600 1600 1600 1600 1600 1600 1600 1600 1607 1607 1607 1607 1615 1615 1615 1615 1615 1615 1615 1615 1615 1615 1615 1615 1615 1615 1615 1622 1622 1622 1622 1622 1622 1622 1622 1615 1615 1607 1607 1607 1607 1600 1607 1615 1615 1615 1615 1615 1622 1622 1622 1622 1622 1622 1622 1622 1622 1622 1630 1630 1630 1630 1630 1622 1622 1630 1630 1053 1056 1053 1056 1056 1056 1056 1053 1053 1056 1056 1056 1056 1056 1056 1638 1638 1638 1638 1638 1638 1638 1638 1638 1638 1638 1638 1638 1638 1638 1638 1638 1638 1638 1645 1645 1645 1645 1645 1653 1653 1653 1653 1653 1653 1653 1653 1653 1653 1653 1653 1653 1653 1653 1653 1653 1653 1661 1661 1661 1661 1661 1661 1661 1661 1661 1661 1661 1661 1661 1661 1661 1661 1661 1661 1661 1661 1661 1661 1661 1661 1661 1661 1661 1661 1661 1661 1661 1661 1661 1661 1661 1661 1669 1669 1669 1669 1669 1677 1669 1669 1677 1677 1677 1677 1677 1677 1677 1677 1677 1677 1677 1677 1677 1677 1677 1677 1686 1686 1686 1686 1686 1686 1686 1686 1686 1686 1686 1686 1686 1686 1686 1686 1686 1686 1694 1694 1694 1694 1694 1694 1694 1694 1694 1694 1694 1694 1694 1694 1694 1702 1702 1702 1702 1702 1702 1711 1711 1711 1702 1702 0 0 0 0 0 0 0 0 0 0 0 0 0 0 0 0 0 0 0 0 0 0 0 0 0 0 0 0 0 0 0 0 0 0 0 0 0 0 0 0 0
    1515 1515 1515 1515 1515 1515 1522 1522 1522 1522 1515 1522 1522 1522 1522 1522 1522 1522 1522 1522 1522 1529 1529 1536 1536 1536 1536 1536 1536 1536 1529 1529 1529 1529 1529 1529 1529 1529 1536 1536 1536 1536 1536 1536 1536 1536 1536 1536 1542 1542 1536 1542 1536 1536 1542 1542 1542 1542 1542 1542 1542 1536 1536 1536 1536 1536 1536 1542 1542 1542 1542 1542 1542 1542 1549 1549 1549 1549 1549 1549 1549 1549 1549 1542 1542 1542 1542 1542 1542 1549 1549 1549 1549 1549 1549 1010 1016 1013 1013 1013 1016 1016 1016 1016 1016 1016 1019 1019 1022 1022 0 0 1563 1563 1563 1563 1563 1563 1563 1563 1563 1563 1563 1563 1563 1571 1571 1571 1563 1563 1563 1571 1571 1571 1571 1571 1571 1571 1571 1571 1571 1571 1571 1571 1571 1571 1571 1571 1571 1571 1571 1571 1571 1571 1571 1571 1578 1578 1585 1585 1585 1585 1585 1585 1585 1585 1585 1592 1585 1585 1585 1585 1585 1585 1440 1440 1440 1440 1440 1440 1440 1446 1592 1592 1592 1600 1600 1600 1600 1600 1600 1600 1600 1600 1600 1600 1600 1600 1600 1600 1600 1600 1600 1600 1600 1600 1600 1600 1600 1600 1600 1600 1600 1600 1607 1600 1600 1607 1607 1607 1607 1607 1607 1607 1607 1607 1607 1615 1615 1615 1615 1615 1615 1615 1615 1615 1615 1615 1622 1622 1622 1622 1622 1622 1622 1622 1622 1615 1615 1615 1615 1607 1607 1607 1615 1622 1615 1622 1622 1622 1622 1622 1622 1622 1622 1622 1622 1622 1622 1630 1630 1630 1630 1630 1630 1622 1630 1630 1053 1053 1053 1056 1053 1053 1056 1053 1053 1056 1056 1056 1056 1056 1060 1060 1638 1638 1638 1638 1638 1638 1638 1638 1638 1638 1638 1630 1638 1638 1638 1638 1638 1638 1645 1645 1645 1645 1645 1653 1645 1653 1653 1653 1653 1653 1653 1653 1653 1653 1653 1661 1661 1653 1653 1653 1653 1661 1653 1661 1661 1661 1661 1661 1661 1661 1661 1661 1661 1661 1661 1661 1661 1661 1661 1661 1661 1661 1661 1661 1661 1661 1661 1661 1661 1661 1661 1661 1661 1661 1661 1661 1661 1669 1669 1669 1669 1669 1669 1669 1669 1669 1677 1677 1677 1677 1677 1677 1677 1677 1677 1677 1677 1677 1669 1677 1677 1677 1677 1686 1686 1686 1686 1686 1686 1686 1686 1686 1686 1686 1686 1686 1686 1686 1686 1694 1694 1694 1694 1694 1694 1694 1694 1694 1694 1694 1694 1694 1694 1694 1702 1694 1694 1702 1702 1702 1711 1711 1711 1711 1702 0 0 0 0 0 0 0 0 0 0 0 0 0 0 0 0 0 0 0 0 0 0 0 0 0 0 0 0 0 0 0 0 0 0 0 0 0 0 0 0 0
    1515 1515 1515 1515 1515 1515 1522 1522 1515 1522 1515 1515 1522 1522 1522 1522 1522 1522 1522 1522 1522 1529 1529 1529 1536 1536 1536 1536 1536 1529 1529 1529 1536 1529 1529 1529 1529 1529 1536 1536 1536 1536 1536 1536 1536 1536 1536 1536 1542 1542 1536 1536 1536 1536 1536 1536 1536 1542 1542 1542 1542 1536 1536 1536 1536 1536 1536 1536 1542 1542 1542 1542 1549 1549 1549 1549 1549 1549 1549 1549 1549 1549 1549 1549 1549 1549 1542 1549 1549 1549 1549 1549 1549 1549 1556 1010 1013 1013 1013 1013 1013 1016 1016 1016 1016 1016 1019 1019 1019 1022 0 0 1563 1563 1563 1563 1563 1563 1563 1563 1563 1563 1563 1563 1571 1571 1571 1571 1563 1563 1563 1571 1571 1571 1571 1571 1571 1571 1571 1571 1571 1571 1571 1571 1571 1571 1571 1571 1571 1571 1571 1571 1571 1571 1571 1571 1578 1578 1578 1578 1578 1585 1585 1585 1585 1585 1585 1592 1592 1592 1592 1592 1592 1592 1434 1434 1440 1440 1440 1440 1440 1440 1592 1592 1592 1592 1600 1600 1600 1600 1600 1600 1600 1600 1600 1600 1600 1600 1600 1600 1600 1600 1600 1600 1600 1600 1600 1600 1600 1600 1600 1600 1600 1607 1607 1607 1607 1607 1607 1607 1607 1607 1607 1615 1615 1615 1615 1615 1615 1615 1615 1615 1615 1615 1615 1615 1615 1615 1622 1622 1622 1622 1622 1622 1622 1622 1622 1615 1615 1615 1615 1607 1607 1615 1615 1622 1622 1622 1622 1622 1622 1622 1622 1622 1622 1622 1622 1622 1630 1630 1630 1630 1630 1630 1622 1622 1622 1622 0 1053 1053 1053 1053 1053 1053 1053 1053 1053 1053 1053 1053 1053 1056 1056 1638 1630 1630 1630 1638 1638 1638 1638 1638 1638 1630 1630 1638 1638 1638 1638 1638 1638 1645 1645 1645 1645 1645 1653 1653 1653 1653 1653 1653 1653 1653 1653 1653 1653 1653 1653 1653 1653 1661 1661 1661 1661 1653 1661 1661 1661 1661 1661 1661 1661 1661 1661 1661 1661 1661 1661 1661 1661 1661 1661 1661 1661 1661 1661 1661 1661 1661 1661 1661 1661 1661 1661 1661 1661 1661 1661 1661 1661 1669 1669 1669 1669 1669 1669 1669 1669 1677 1677 1677 1677 1677 1677 1677 1677 1677 1677 1669 1669 1669 1669 1677 1677 1677 1686 1686 1686 1686 1686 1686 1686 1686 1686 1686 1686 1686 1686 1686 1686 1686 1694 1694 1694 1694 1686 1694 1694 1686 1694 1694 1694 1694 1694 1694 1694 1702 1694 1702 1702 1702 1702 1702 1702 1702 1702 1694 0 0 0 0 0 0 0 0 0 0 0 0 0 0 0 0 0 0 0 0 0 0 0 0 0 0 0 0 0 0 0 0 0 0 0 0 0 0 0 0 0
    1515 1515 1515 1515 1515 1515 1522 1522 1515 1522 1515 1522 1522 1522 1522 1522 1522 1522 1522 1522 1522 1529 1529 1529 1529 1529 1529 1529 1529 1529 1529 1529 1529 1529 1536 1529 1529 1529 1536 1536 1536 1536 1536 1536 1536 1536 1536 1542 1542 1542 1536 1536 1536 1536 1536 1536 1542 1542 1542 1542 1542 1536 1536 1536 1536 1536 1536 1542 1542 1542 1542 1542 1549 1549 1549 1549 1549 1549 1549 1549 1549 1549 1542 1542 1542 1549 1549 1549 1549 1549 1549 1549 1549 1549 1542 1013 1016 1013 1013 1013 1016 1016 1016 1016 1016 1016 1019 1019 1019 1019 0 0 1563 1563 1563 1563 1563 1563 1563 1563 1563 1571 1571 1571 1571 1571 1571 1571 1571 1563 1563 1563 1563 1571 1571 1571 1571 1571 1571 1571 1571 1571 1571 1571 1571 1571 1571 1571 1571 1578 1571 1571 1571 1578 1578 1578 1578 1578 1585 1585 1578 1585 1585 1585 1585 1585 1585 1592 1592 1592 1592 1592 1592 1592 1434 1440 1440 1440 1440 1440 1440 1440 1592 1592 1592 1592 1600 1600 1600 1600 1600 1600 1600 1600 1600 1600 1600 1600 1600 1600 1600 1600 1600 1600 1600 1600 1600 1600 1600 1600 1600 1607 1607 1607 1607 1607 1607 1607 1607 1607 1607 1607 1607 1607 1607 1607 1615 1615 1615 1615 1615 1615 1615 1622 1622 1615 1622 1622 1622 1622 1622 1622 1622 1622 1622 1622 1622 1622 1615 1615 1615 1607 1607 1615 1615 1622 1622 1622 1622 1622 1622 1622 1622 1622 1622 1622 1622 1622 1630 1630 1630 1630 1630 1622 1622 1622 1622 1622 0 1053 1053 1053 1053 1053 1056 1053 1053 1053 1053 1053 1053 1053 1056 1056 1638 1630 1630 1638 1638 1638 1638 1638 1638 1638 1630 1630 1638 1638 1638 1638 1638 1638 1645 1645 1645 1645 1645 1653 1653 1653 1653 1653 1653 1653 1653 1653 1653 1653 1653 1653 1653 1653 1653 1653 1653 1653 1653 1653 1653 1653 1653 1653 1661 1661 1661 1653 1653 1661 1661 1661 1661 1661 1661 1661 1661 1661 1661 1661 1661 1661 1661 1661 1661 1661 1661 1661 1661 1661 1661 1661 1661 1661 1669 1669 1669 1669 1669 1669 1669 1669 1669 1677 1669 1677 1677 1677 1677 1669 1669 1669 1669 1669 1669 1669 1669 1677 1677 1677 1686 1686 1686 1686 1686 1686 1686 1686 1686 1686 1686 1686 1686 1686 1686 1686 1686 1686 1686 1686 1686 1686 1686 1694 1694 1694 1694 1702 1694 1702 1702 1702 1702 1702 1702 1702 1702 1702 1702 1702 1702 0 0 0 0 0 0 0 0 0 0 0 0 0 0 0 0 0 0 0 0 0 0 0 0 0 0 0 0 0 0 0 0 0 0 0 0 0 0 0 0 0
    1515 1515 1515 1515 1515 1515 1522 1515 1515 1515 1515 1515 1522 1522 1522 1522 1522 1522 1522 1522 1522 1522 1529 1529 1529 1529 1529 1529 1529 1529 1529 1529 1536 1536 1536 1536 1536 1536 1536 1536 1536 1536 1536 1536 1536 1536 1536 1542 1542 1542 1536 1536 1536 1536 1536 1542 1542 1542 1542 1542 1542 1542 1542 1542 1536 1536 1542 1542 1542 1542 1542 1549 1549 1549 1549 1549 1549 1549 1549 1549 1542 1542 1542 1542 1542 1542 1542 1542 1542 1549 1542 1549 1549 1549 1542 1013 1016 1013 1016 1013 1016 1016 1016 1016 1016 1016 1016 1016 1019 1019 0 1563 1563 1563 1563 1563 1563 1571 1563 1571 1571 1571 1571 1571 1571 1571 1571 1571 1563 1563 1563 1563 1563 1571 1571 1571 1571 1571 1571 1571 1571 1571 1571 1571 1571 1571 1571 1571 1578 1578 1578 1578 1578 1578 1578 1578 1578 1585 1585 1585 1585 1585 1585 1585 1585 1585 1592 1592 1592 1592 1592 1592 1592 1592 1434 1440 1440 1440 1440 1440 1440 1440 1592 1592 1592 1592 1600 1600 1600 1600 1600 1600 1600 1600 1600 1600 1600 1600 1600 1600 1600 1600 1600 1600 1600 1600 1600 1600 1600 1600 1600 1607 1600 1600 1607 1607 1607 1607 1607 1607 1607 1607 1607 1607 1607 1607 1607 1615 1615 1615 1615 1615 1615 1622 1622 1622 1622 1622 1622 1622 1622 1622 1622 1622 1622 1622 1622 1622 1622 1622 1622 1615 1615 1622 1622 1622 1622 1622 1622 1622 1622 1622 1622 1622 1622 1622 1622 1622 1622 1630 1630 1622 1622 1622 1622 1622 1622 1622 0 1053 1053 1053 1053 1053 1056 1053 1053 1053 1053 1053 1053 1053 1053 1053 1053 1630 1630 1630 1630 1630 1638 1638 1638 1638 1638 1638 1638 1638 1638 1638 1638 1638 1638 1645 1645 1645 1645 1645 1645 1653 1653 1653 1653 1653 1653 1653 1653 1653 1653 1653 1653 1653 1653 1653 1653 1653 1653 1653 1661 1661 1661 1661 1661 1661 1653 1653 1653 1653 1661 1661 1661 1661 1661 1661 1661 1661 1661 1661 1661 1661 1661 1661 1661 1661 1661 1661 1661 1661 1661 1661 1661 1661 1661 1669 1669 1669 1669 1669 1669 1677 1677 1677 1669 1677 1669 1669 1669 1669 1669 1669 1669 1669 1669 1669 1669 1677 1677 1677 1686 1686 1686 1686 1686 1686 1686 1686 1686 1686 1686 1686 1686 1686 1686 1686 1686 1686 1686 1686 1686 1694 1686 1694 1694 1694 1694 1694 1694 1694 1694 1694 1694 1702 1702 1694 1694 1702 1702 1702 1694 0 0 0 0 0 0 0 0 0 0 0 0 0 0 0 0 0 0 0 0 0 0 0 0 0 0 0 0 0 0 0 0 0 0 0 0 0 0 0 0 0
    1515 1515 1515 1515 1515 1515 1515 1515 1515 1515 1515 1515 1522 1522 1522 1522 1522 1522 1522 1522 1522 1522 1529 1529 1529 1529 1529 1529 1529 1529 1529 1529 1536 1536 1536 1536 1536 1536 1536 1536 1536 1536 1536 1536 1536 1536 1536 1542 1542 1542 1536 1536 1536 1536 1536 1542 1542 1542 1542 1542 1542 1536 1536 1536 1536 1536 1536 1542 1542 1542 1542 1549 1549 1549 1549 1549 1549 1549 1549 1549 1542 1542 1542 1542 1542 1542 1542 1542 1542 1542 1542 1542 1542 1542 1542 1013 1013 1013 1013 1013 1013 1013 1016 1016 1016 1016 1016 1016 1016 1016 0 1556 1556 1563 1563 1563 1563 1563 1563 1571 1563 1571 1571 1563 1563 1571 1571 1571 1563 1563 1563 1563 1563 1571 1571 1571 1571 1571 1571 1571 1571 1571 1571 1563 1563 1571 1571 1571 1571 1571 1571 1571 1571 1571 1578 1578 1578 1585 1585 1585 1585 1585 1585 1585 1585 1585 1592 1592 1592 1592 1592 1592 1592 1434 1440 1440 1440 1440 1440 1440 1440 1440 1585 1585 1592 1592 1592 1600 1600 1600 1600 1600 1600 1600 1600 1600 1600 1600 1600 1600 1600 1600 1600 1600 1600 1600 1600 1600 1600 1600 1600 1607 1607 1607 1607 1607 1607 1607 1615 1607 1607 1607 1607 1607 1607 1607 1607 1607 1615 1615 1615 1622 1622 1622 1622 1622 1615 1622 1622 1622 1622 1622 1622 1622 1622 1622 1622 1622 1622 1622 1622 1622 1622 1622 1622 1622 1622 1622 1622 1622 1622 1622 1622 1622 1622 1622 1622 1622 1622 1622 1630 1622 1622 1622 1622 1622 1622 1622 0 1056 1053 1053 1053 1053 1053 1053 1053 1053 1053 1053 1053 1053 1053 1053 1053 1638 1638 1638 1638 1638 1638 1638 1638 1638 1630 1638 1638 1638 1638 1638 1638 1638 1645 1645 1645 1645 1645 1653 1653 1645 1653 1653 1653 1653 1653 1653 1653 1653 1653 1653 1653 1653 1653 1653 1653 1653 1653 1653 1661 1661 1661 1661 1661 1653 1653 1653 1653 1653 1661 1661 1661 1661 1661 1661 1661 1661 1661 1661 1661 1661 1661 1661 1661 1661 1661 1661 1661 1661 1661 1661 1661 1661 1661 1661 1669 1669 1669 1669 1669 1669 1669 1669 1669 1669 1669 1669 1669 1669 1669 1669 1669 1669 1669 1669 1669 1677 1677 1677 1686 1686 1686 1686 1686 1686 1686 1686 1677 1686 1686 1686 1686 1686 1686 1686 1686 1686 1686 1686 1694 1694 1686 1694 1694 1694 1694 1694 1694 1694 1694 1694 1694 1694 1702 1694 1702 1702 1702 1702 1702 0 0 0 0 0 0 0 0 0 0 0 0 0 0 0 0 0 0 0 0 0 0 0 0 0 0 0 0 0 0 0 0 0 0 0 0 0 0 0 0 0
    1509 1515 1515 1515 1515 1515 1515 1515 1515 1515 1515 1515 1515 1522 1522 1522 1522 1522 1522 1522 1522 1522 1522 1529 1522 1529 1529 1529 1529 1529 1529 1529 1529 1529 1529 1529 1529 1529 1536 1536 1536 1536 1536 1536 1536 1536 1536 1536 1536 1536 1536 1536 1536 1536 1536 1536 1536 1542 1542 1542 1542 1542 1536 1536 1536 1536 1536 1536 1542 1542 1542 1542 1549 1549 1549 1549 1549 1549 1542 1542 1542 1542 1542 1542 1542 1542 1542 1542 1542 1542 1542 1542 1542 1542 1536 1013 1016 1016 1016 1016 1016 1016 1016 1016 1016 1016 1016 1016 1016 1016 1563 1563 1563 1563 1563 1563 1563 1563 1563 1571 1571 1571 1563 1563 1563 1563 1563 1563 1563 1563 1563 1563 1563 1563 1563 1563 1571 1571 1571 1571 1571 1571 1571 1563 1563 1571 1571 1571 1571 1571 1571 1571 1578 1578 1578 1578 1578 1578 1585 1585 1585 1585 1585 1585 1585 1585 1585 1585 1585 1585 1592 1592 1592 1434 1440 1440 1440 1440 1440 1440 1440 1440 1592 1592 1592 1592 1592 1600 1600 1600 1600 1600 1600 1600 1600 1600 1600 1600 1600 1600 1600 1600 1600 1600 1600 1600 1600 1600 1600 1600 1600 1600 1600 1600 1607 1607 1607 1607 1615 1615 1615 1615 1615 1615 1615 1607 1607 1607 1615 1615 1615 1615 1615 1615 1622 1615 1622 1622 1615 1622 1622 1622 1622 1622 1622 1622 1622 1622 1622 1622 1615 1615 1615 1615 1615 1622 1622 1622 1622 1622 1622 1622 1622 1622 1622 1622 1622 1622 1622 1622 1630 1622 1622 1622 1622 1622 1622 1622 0 1056 1053 1053 1053 1053 1053 1053 1053 1053 1050 1053 1053 1053 1053 1053 1053 1630 1638 1638 1638 1638 1638 1638 1638 1638 1638 1638 1638 1638 1638 1638 1638 1638 1645 1645 1645 1645 1645 1653 1653 1645 1653 1653 1653 1653 1653 1653 1653 1653 1653 1653 1653 1653 1653 1653 1653 1653 1653 1653 1653 1653 1653 1653 1653 1653 1653 1653 1653 1653 1653 1661 1661 1661 1661 1661 1661 1661 1661 1661 1661 1661 1661 1661 1661 1661 1661 1661 1661 1661 1661 1661 1661 1661 1661 1661 1669 1669 1669 1669 1669 1669 1669 1669 1669 1669 1669 1669 1669 1669 1669 1669 1669 1669 1669 1669 1669 1669 1669 1677 1677 1686 1686 1686 1686 1686 1686 1686 1686 1686 1686 1686 1686 1686 1686 1686 1686 1686 1694 1694 1694 1694 1686 1694 1694 1694 1694 1694 1694 1694 1694 1694 1694 1694 1702 1702 1702 1702 1702 1711 1702 0 0 0 0 0 0 0 0 0 0 0 0 0 0 0 0 0 0 0 0 0 0 0 0 0 0 0 0 0 0 0 0 0 0 0 0 0 0 0 0 0
    1509 1515 1515 1515 1515 1515 1515 1515 1515 1515 1515 1515 1522 1522 1522 1522 1522 1522 1522 1522 1522 1522 1522 1522 1522 1522 1522 1522 1522 1522 1522 1522 1529 1529 1536 1536 1536 1536 1536 1536 1536 1536 1536 1536 1536 1536 1536 1536 1536 1542 1536 1536 1536 1536 1536 1536 1536 1536 1536 1536 1536 1542 1536 1536 1536 1536 1536 1542 1542 1542 1542 1542 1549 1549 1549 1549 1549 1549 1542 1549 1542 1542 1542 1549 1549 1549 1549 1549 1542 1542 1542 1542 1542 1542 1536 1013 1013 1016 1016 1013 1016 1016 1016 1016 1016 1016 1016 1016 1016 1014 1556 1556 1556 1563 1563 1563 1563 1563 1563 1571 1571 1571 1571 1563 1563 1563 1563 1563 1563 1556 1563 1563 1563 1563 1563 1571 1571 1571 1571 1571 1571 1571 1571 1571 1571 1571 1571 1571 1571 1571 1571 1571 1571 1578 1578 1578 1578 1578 1585 1585 1585 1585 1585 1585 1585 1585 1585 1592 1592 1585 1592 1592 1592 1440 1440 1440 1440 1440 1440 1440 1440 1440 1592 1592 1592 1592 1600 1600 1600 1600 1600 1600 1600 1600 1600 1592 1600 1600 1600 1600 1600 1600 1600 1600 1600 1600 1600 1600 1600 1600 1600 1600 1600 1600 1600 1607 1607 1607 1615 1615 1615 1615 1615 1615 1615 1607 1607 1607 1607 1615 1615 1615 1615 1615 1622 1622 1622 1622 1622 1622 1622 1622 1622 1622 1615 1622 1622 1622 1615 1622 1622 1622 1622 1622 1615 1622 1622 1622 1622 1622 1622 1622 1622 1622 1622 1622 1622 1622 1622 1630 1630 1630 1622 1622 1622 1622 1622 1622 1622 1053 1053 1053 1053 1053 1053 1053 1053 1053 1050 1050 1050 1053 1053 1053 1053 1638 1630 1630 1630 1630 1630 1630 1630 1630 1638 1638 1638 1638 1638 1638 1638 1638 1638 1645 1645 1638 1638 1638 1645 1645 1645 1645 1645 1653 1645 1653 1653 1653 1653 1653 1653 1653 1653 1653 1661 1653 1653 1661 1661 1661 1653 1653 1653 1653 1653 1653 1653 1653 1661 1661 1661 1661 1661 1661 1661 1661 1661 1661 1661 1661 1661 1661 1661 1661 1661 1661 1661 1661 1661 1661 1661 1661 1661 1661 1669 1669 1669 1669 1669 1669 1669 1669 1669 1669 1661 1661 1669 1669 1669 1669 1669 1669 1669 1669 1669 1669 1677 1677 1677 1686 1686 1686 1686 1686 1686 1686 1686 1686 1686 1686 1686 1686 1686 1686 1686 1686 1686 1694 1694 1694 1686 1694 1694 1694 1694 1694 1694 1694 1694 1694 1694 1694 1702 1702 1702 1702 1702 1702 1702 0 0 0 0 0 0 0 0 0 0 0 0 0 0 0 0 0 0 0 0 0 0 0 0 0 0 0 0 0 0 0 0 0 0 0 0 0 0 0 0 0
    1515 1515 1515 1515 1515 1515 1515 1515 1515 1515 1515 1515 1522 1522 1522 1529 1522 1522 1522 1522 1515 1515 1515 1522 1522 1522 1522 1522 1522 1529 1529 1529 1529 1529 1536 1536 1536 1536 1536 1536 1536 1536 1536 1536 1536 1536 1536 1536 1536 1536 1536 1536 1536 1536 1536 1536 1536 1536 1536 1536 1536 1536 1536 1536 1536 1536 1536 1542 1542 1542 1542 1549 1549 1549 1549 1549 1549 1549 1549 1549 1549 1549 1549 1549 1549 1549 1549 1549 1549 1549 1549 1549 1549 1542 1536 1013 1016 1016 1016 1016 1016 1016 1016 1016 1016 1016 1016 1016 1016 1013 1556 1556 1556 1563 1563 1563 1563 1563 1571 1571 1571 1571 1571 1563 1563 1571 1571 1563 1563 1556 1563 1563 1563 1563 1563 1563 1571 1571 1571 1571 1571 1571 1571 1571 1571 1571 1571 1571 1571 1571 1571 1571 1571 1571 1578 1578 1578 1578 1578 1585 1585 1585 1585 1585 1585 1585 1585 1585 1592 1585 1592 1592 1592 1440 1440 1440 1440 1440 1440 1440 1440 1440 1592 1592 1592 1592 1592 1600 1600 1600 1600 1600 1600 1592 1592 1592 1600 1600 1600 1600 1600 1600 1600 1600 1600 1600 1600 1600 1600 1600 1600 1600 1600 1600 1600 1600 1600 1607 1607 1615 1615 1615 1615 1615 1615 1615 1615 1615 1615 1615 1615 1615 1615 1615 1622 1622 1622 1622 1622 1622 1622 1622 1622 1615 1615 1615 1615 1615 1615 1615 1622 1615 1615 1622 1615 1615 1615 1622 1622 1622 1622 1622 1622 1622 1622 1622 1622 1622 1622 1622 1622 1622 1622 1622 1622 1622 1622 1622 1615 1337 1056 1053 1053 1053 1053 1053 1050 1053 1050 1050 1053 1053 1053 1053 1053 1638 1630 1630 1630 1630 1630 1630 1638 1638 1638 1638 1645 1638 1638 1638 1638 1638 1638 1645 1645 1638 1638 1638 1645 1645 1645 1645 1645 1645 1645 1653 1653 1653 1653 1653 1653 1653 1653 1653 1653 1653 1661 1653 1661 1661 1653 1653 1653 1653 1653 1653 1653 1653 1661 1661 1661 1661 1661 1661 1661 1661 1661 1661 1661 1661 1661 1661 1661 1661 1661 1661 1661 1661 1661 1661 1661 1661 1661 1661 1669 1669 1669 1669 1669 1669 1669 1669 1669 1669 1661 1661 1661 1669 1669 1669 1669 1669 1669 1677 1677 1677 1677 1677 1686 1686 1686 1686 1686 1686 1686 1686 1686 1686 1686 1686 1686 1686 1686 1686 1686 1686 1686 1694 1694 1694 1694 1694 1694 1694 1694 1694 1694 1694 1694 1694 1694 1694 1702 1702 1702 1702 1702 1702 1702 0 0 0 0 0 0 0 0 0 0 0 0 0 0 0 0 0 0 0 0 0 0 0 0 0 0 0 0 0 0 0 0 0 0 0 0 0 0 0 0 0
    1509 1509 1515 1515 1515 1515 1515 1515 1515 1515 1515 1515 1522 1522 1522 1529 1529 1529 1522 1522 1522 1522 1522 1522 1522 1522 1522 1522 1529 1529 1529 1529 1529 1529 1536 1536 1536 1536 1536 1536 1536 1536 1536 1536 1536 1536 1536 1536 1536 1536 1536 1536 1536 1536 1536 1536 1536 1536 1536 1542 1542 1542 1542 1536 1536 1542 1542 1542 1542 1549 1549 1549 1549 1549 1549 1549 1549 1549 1549 1549 1549 1549 1549 1549 1549 1549 1549 1549 1549 1542 1542 1542 1542 1549 1542 1013 1016 1016 1016 1016 1016 1016 1016 1016 1016 1016 1016 1016 1013 1013 1563 1563 1563 1563 1563 1563 1563 1563 1563 1563 1563 1563 1563 1563 1563 1563 1563 1563 1563 1563 1563 1563 1563 1563 1563 1563 1571 1571 1571 1571 1571 1571 1571 1571 1571 1571 1571 1571 1571 1571 1571 1571 1578 1571 1571 1578 1578 1578 1578 1585 1585 1585 1585 1585 1585 1585 1585 1585 1585 1585 1592 1592 1592 1440 1440 1440 1440 1440 1440 1440 1440 1440 1592 1592 1592 1592 1592 1592 1592 1592 1592 1592 1592 1592 1592 1592 1592 1600 1600 1600 1600 1600 1600 1600 1600 1600 1600 1600 1600 1600 1600 1600 1600 1600 1600 1600 1600 1607 1607 1607 1615 1615 1607 1615 1615 1615 1615 1615 1607 1607 1615 1615 1615 1615 1615 1615 1622 1622 1622 1622 1622 1622 1622 1622 1615 1622 1622 1622 1622 1622 1622 1615 1615 1615 1615 1615 1615 1615 1615 1622 1622 1622 1622 1622 1622 1622 1622 1622 1622 1622 1622 1622 1622 1622 1630 1622 1622 1622 1622 1622 1050 1050 1050 1053 1053 1053 1050 1050 1050 1050 1050 1053 1053 1053 1053 1645 1638 1638 1630 1630 1630 1630 1638 1638 1638 1638 1638 1645 1638 1638 1638 1638 1638 1638 1638 1630 1638 1630 1638 1638 1645 1645 1645 1645 1645 1653 1653 1653 1653 1653 1653 1653 1653 1653 1653 1653 1653 1653 1661 1661 1653 1653 1653 1653 1653 1653 1653 1653 1661 1661 1661 1661 1661 1661 1661 1661 1661 1661 1661 1661 1661 1661 1661 1661 1661 1661 1661 1661 1661 1661 1661 1661 1661 1661 1669 1669 1669 1669 1669 1669 1669 1669 1669 1669 1661 1661 1661 1669 1669 1669 1669 1669 1669 1677 1677 1677 1677 1677 1677 1677 1677 1686 1686 1686 1686 1686 1686 1686 1686 1686 1686 1686 1686 1686 1686 1686 1694 1694 1694 1694 1694 1694 1694 1694 1694 1694 1694 1694 1694 1694 1694 1694 1702 1702 1702 1702 1702 1711 1702 0 0 0 0 0 0 0 0 0 0 0 0 0 0 0 0 0 0 0 0 0 0 0 0 0 0 0 0 0 0 0 0 0 0 0 0 0 0 0 0 0
    1515 1515 1515 1515 1515 1515 1515 1515 1515 1515 1515 1515 1515 1515 1522 1522 1522 1522 1522 1522 1522 1522 1522 1522 1522 1529 1529 1529 1529 1529 1529 1529 1529 1529 1536 1536 1536 1536 1536 1536 1536 1536 1536 1536 1536 1536 1536 1536 1536 1536 1536 1536 1536 1536 1536 1536 1536 1536 1536 1536 1536 1542 1536 1536 1536 1536 1542 1542 1542 1542 1549 1549 1549 1549 1549 1542 1542 1542 1542 1549 1549 1549 1542 1549 1542 1549 1542 1542 1542 1542 1542 1542 1542 1549 1549 1016 1016 1016 1016 1016 1016 1016 1013 1013 1013 1016 1013 1013 1013 1010 1563 1556 1563 1563 1563 1563 1563 1563 1563 1563 1563 1563 1563 1563 1563 1563 1563 1563 1563 1563 1563 1563 1563 1563 1563 1571 1571 1571 1571 1571 1571 1571 1571 1571 1571 1571 1571 1571 1571 1571 1571 1571 1571 1571 1571 1571 1578 1578 1578 1585 1585 1585 1585 1585 1585 1585 1585 1585 1585 1585 1585 1585 1592 1440 1446 1440 1440 1446 1440 1440 1440 1434 1592 1592 1592 1592 1592 1592 1592 1592 1592 1592 1592 1592 1592 1592 1592 1592 1600 1600 1600 1600 1600 1600 1600 1600 1600 1600 1600 1600 1600 1600 1600 1600 1600 1600 1600 1607 1607 1615 1615 1615 1615 1615 1615 1615 1615 1607 1607 1615 1615 1615 1615 1615 1615 1622 1622 1622 1622 1622 1622 1622 1622 1622 1622 1622 1622 1622 1622 1622 1622 1615 1615 1615 1607 1607 1615 1615 1615 1622 1622 1622 1622 1622 1622 1622 1622 1622 1622 1622 1622 1622 1622 1622 1630 1622 1622 1622 1622 1622 1056 1050 1050 1053 1053 1050 1050 1050 1050 1050 1053 1053 1053 1053 1053 1653 1638 1638 1638 1638 1638 1638 1638 1638 1638 1638 1645 1638 1645 1638 1638 1638 1638 1638 1638 1630 1630 1630 1638 1638 1638 1645 1645 1645 1653 1653 1653 1653 1653 1653 1653 1653 1653 1653 1653 1653 1661 1661 1661 1661 1661 1653 1653 1653 1653 1653 1653 1653 1653 1661 1661 1661 1661 1661 1661 1661 1661 1661 1661 1661 1661 1661 1661 1661 1661 1661 1661 1661 1661 1661 1661 1661 1661 1661 1661 1669 1669 1669 1669 1669 1669 1669 1669 1669 1661 1661 1661 1669 1669 1669 1677 1677 1677 1677 1677 1686 1677 1677 1686 1686 1686 1686 1686 1686 1686 1686 1686 1686 1686 1686 1686 1686 1686 1686 1686 1686 1694 1694 1694 1694 1694 1694 1694 1694 1694 1694 1694 1694 1694 1694 1694 1694 1702 1702 1711 1702 1711 1711 1711 0 0 0 0 0 0 0 0 0 0 0 0 0 0 0 0 0 0 0 0 0 0 0 0 0 0 0 0 0 0 0 0 0 0 0 0 0 0 0 0 0
    1515 1515 1515 1515 1515 1515 1515 1515 1515 1515 1515 1515 1515 1515 1515 1522 1522 1522 1522 1522 1522 1522 1522 1522 1522 1522 1522 1522 1529 1522 1529 1522 1529 1529 1529 1529 1536 1536 1536 1536 1536 1536 1536 1536 1536 1536 1536 1536 1536 1536 1536 1536 1536 1536 1536 1536 1542 1542 1542 1542 1536 1536 1536 1536 1536 1536 1536 1536 1536 1542 1542 1542 1542 1549 1549 1542 1542 1542 1542 1542 1542 1542 1542 1549 1542 1542 1542 1542 1542 1542 1542 1542 1542 1549 1016 1016 1016 1016 1016 1013 1013 1013 1013 1013 1013 1016 1016 1013 1013 1010 1563 1563 1563 1563 1563 1563 1563 1563 1563 1563 1563 1563 1563 1563 1563 1563 1563 1563 1563 1563 1563 1563 1571 1563 1563 1571 1571 1571 1571 1571 1571 1571 1571 1571 1571 1571 1571 1571 1571 1571 1571 1571 1571 1571 1571 1578 1578 1578 1585 1585 1585 1585 1585 1585 1585 1578 1578 1578 1585 1585 1585 1592 1592 1440 1446 1440 1440 1446 1440 1440 1440 1440 1592 1592 1592 1592 1592 1592 1592 1592 1600 1592 1592 1592 1592 1592 1592 1592 1592 1600 1600 1600 1600 1600 1600 1600 1600 1600 1600 1600 1600 1600 1600 1600 1600 1600 1600 1607 1607 1615 1615 1615 1607 1607 1615 1615 1615 1607 1607 1607 1607 1607 1607 1615 1615 1615 1622 1622 1622 1622 1622 1622 1622 1615 1615 1615 1615 1615 1615 1622 1622 1615 1615 1615 1607 1607 1615 1615 1622 1622 1622 1622 1622 1622 1622 1622 1622 1622 1622 1622 1622 1622 1622 1630 1630 1630 1630 1630 1622 1622 1054 1050 1050 1053 1050 1050 1050 1050 1050 1050 1050 1053 1053 1053 1053 1653 1638 1638 1638 1638 1638 1638 1638 1638 1638 1638 1638 1638 1645 1645 1638 1638 1638 1638 1638 1638 1638 1638 1638 1638 1638 1638 1638 1645 1653 1653 1653 1653 1653 1653 1653 1653 1653 1653 1653 1653 1661 1661 1661 1661 1661 1653 1653 1653 1653 1661 1661 1661 1661 1661 1661 1661 1661 1661 1661 1661 1661 1661 1661 1661 1661 1661 1661 1661 1661 1661 1661 1661 1661 1661 1661 1661 1661 1661 1669 1669 1669 1669 1669 1669 1669 1669 1669 1669 1661 1661 1661 1669 1669 1669 1669 1677 1677 1677 1677 1686 1677 1686 1686 1686 1686 1686 1686 1686 1686 1686 1686 1686 1686 1686 1686 1686 1686 1686 1686 1686 1694 1694 1694 1694 1694 1694 1694 1694 1694 1694 1694 1694 1694 1694 1694 1702 1702 1702 1702 1702 1702 1711 1702 0 0 0 0 0 0 0 0 0 0 0 0 0 0 0 0 0 0 0 0 0 0 0 0 0 0 0 0 0 0 0 0 0 0 0 0 0 0 0 0 0
    1515 1515 1515 1515 1515 1515 1515 1515 1515 1515 1515 1515 1515 1515 1515 1515 1522 1522 1522 1522 1522 1522 1522 1522 1522 1522 1522 1529 1529 1522 1529 1522 1529 1522 1529 1529 1529 1529 1536 1529 1529 1536 1536 1536 1536 1536 1536 1536 1536 1536 1536 1536 1536 1536 1536 1536 1536 1542 1536 1536 1536 1536 1536 1536 1536 1536 1536 1536 1542 1542 1542 1542 1549 1549 1549 1549 1542 1542 1549 1549 1542 1542 1542 1549 1549 1549 1549 1549 1549 1542 1542 1542 1542 1549 1016 1016 1016 1016 1016 1016 1013 1013 1013 1013 1013 1016 1016 1016 1013 1556 1563 1556 1556 1556 1556 1563 1563 1563 1563 1563 1563 1563 1563 1563 1563 1563 1563 1563 1563 1563 1563 1563 1563 1563 1563 1563 1563 1571 1563 1571 1571 1571 1571 1571 1571 1571 1571 1571 1571 1571 1571 1571 1571 1571 1571 1571 1578 1578 1585 1585 1585 1585 1585 1585 1578 1578 1578 1578 1578 1578 1585 1585 1592 1446 1446 1446 1440 1446 1440 1440 1440 1440 1592 1592 1592 1592 1592 1592 1592 1592 1592 1592 1592 1592 1592 1592 1592 1592 1600 1600 1600 1600 1600 1600 1600 1600 1600 1600 1600 1600 1600 1600 1600 1600 1600 1600 1600 1600 1607 1607 1615 1615 1615 1615 1615 1615 1615 1615 1607 1607 1607 1615 1615 1615 1615 1622 1622 1622 1622 1622 1622 1622 1622 1615 1622 1622 1622 1615 1622 1622 1622 1615 1615 1615 1615 1607 1615 1615 1622 1622 1622 1622 1622 1622 1622 1622 1622 1622 1622 1622 1622 1622 1622 1622 1622 1630 1630 1630 1622 1630 1052 1050 1050 1050 1050 1047 1050 1050 1050 1050 1050 1053 1053 1053 1053 1053 1638 1630 1630 1638 1638 1638 1638 1638 1638 1638 1638 1645 1645 1645 1638 1638 1638 1638 1638 1630 1638 1638 1638 1638 1638 1638 1638 1645 1645 1653 1653 1653 1653 1653 1653 1653 1653 1653 1653 1653 1661 1661 1661 1661 1661 1661 1661 1653 1653 1653 1653 1653 1653 1653 1653 1653 1653 1653 1653 1661 1661 1661 1661 1661 1661 1661 1661 1661 1661 1661 1661 1661 1661 1661 1661 1661 1661 1661 1661 1661 1669 1669 1669 1669 1669 1669 1669 1669 1669 1669 1669 1669 1669 1669 1669 1677 1677 1677 1677 1677 1677 1677 1686 1686 1686 1677 1677 1677 1686 1686 1686 1686 1686 1686 1686 1686 1686 1686 1686 1686 1694 1694 1694 1694 1694 1694 1694 1694 1694 1694 1694 1694 1702 1702 1702 1702 1702 1702 1711 1702 1702 1711 1702 0 0 0 0 0 0 0 0 0 0 0 0 0 0 0 0 0 0 0 0 0 0 0 0 0 0 0 0 0 0 0 0 0 0 0 0 0 0 0 0 0
    1515 1515 1515 1515 1515 1515 1515 1515 1515 1515 1515 1515 1515 1515 1515 1515 1515 1522 1515 1515 1515 1522 1522 1522 1522 1522 1529 1529 1529 1529 1529 1529 1529 1529 1529 1529 1529 1529 1529 1529 1529 1529 1529 1529 1536 1536 1536 1536 1536 1536 1536 1536 1536 1536 1536 1536 1542 1542 1536 1536 1536 1536 1536 1536 1536 1536 1536 1542 1542 1542 1542 1542 1542 1549 1549 1542 1542 1542 1542 1542 1542 1542 1542 1549 1549 1549 1549 1542 1542 1542 1542 1542 1542 1542 1016 1016 1016 1013 1013 1013 1013 1013 1013 1013 1013 1013 1013 1013 1013 0 1563 1556 1556 1556 1556 1563 1563 1563 1563 1563 1563 1563 1563 1563 1563 1563 1563 1563 1563 1563 1563 1563 1563 1563 1563 1563 1563 1571 1571 1571 1571 1571 1571 1571 1571 1571 1571 1571 1571 1571 1571 1571 1571 1571 1571 1571 1578 1578 1578 1585 1585 1585 1585 1585 1578 1578 1578 1578 1585 1585 1592 1592 1600 1446 1446 1446 1440 1446 1440 1440 1440 1440 1600 1592 1592 1592 1592 1592 1592 1592 1592 1592 1592 1592 1592 1592 1592 1592 1592 1600 1600 1600 1600 1600 1600 1600 1600 1600 1600 1600 1600 1600 1600 1600 1600 1607 1600 1600 1600 1607 1607 1607 1607 1615 1615 1615 1615 1615 1615 1615 1615 1615 1615 1615 1622 1622 1622 1622 1622 1622 1622 1622 1622 1622 1622 1622 1622 1622 1622 1622 1622 1622 1615 1622 1615 1615 1615 1615 1622 1622 1622 1622 1622 1622 1622 1622 1622 1622 1622 1622 1622 1622 1622 1630 1630 1630 1630 1630 1622 1622 1050 1047 1050 1050 1050 1047 1047 1047 1047 1047 1050 1050 1050 1050 1053 1053 1630 1630 1630 1630 1638 1638 1638 1638 1638 1638 1638 1645 1645 1645 1638 1645 1638 1638 1638 1630 1638 1638 1638 1638 1638 1638 1645 1645 1645 1653 1653 1653 1653 1653 1653 1653 1653 1653 1653 1653 1653 1661 1661 1661 1661 1661 1653 1653 1653 1653 1653 1653 1653 1653 1653 1661 1661 1661 1661 1661 1661 1661 1661 1661 1661 1661 1661 1661 1661 1661 1661 1661 1661 1661 1661 1661 1661 1661 1661 1661 1661 1661 1661 1661 1661 1661 1661 1669 1669 1669 1669 1669 1669 1669 1669 1669 1669 1669 1677 1677 1677 1677 1686 1686 1686 1686 1686 1686 1686 1686 1677 1686 1686 1686 1686 1686 1686 1686 1686 1686 1686 1694 1694 1694 1686 1686 1694 1694 1694 1694 1694 1694 1694 1694 1694 1702 1702 1702 1702 1702 1702 1702 1702 0 0 0 0 0 0 0 0 0 0 0 0 0 0 0 0 0 0 0 0 0 0 0 0 0 0 0 0 0 0 0 0 0 0 0 0 0 0 0 0 0
    1515 1515 1515 1515 1515 1515 1515 1515 1515 1515 1515 1515 1515 1515 1515 1515 1515 1515 1515 1515 1515 1515 1515 1515 1522 1522 1529 1529 1529 1529 1529 1529 1529 1529 1529 1529 1529 1529 1529 1529 1529 1529 1529 1529 1536 1536 1536 1536 1536 1536 1536 1536 1536 1536 1536 1542 1542 1542 1536 1542 1536 1536 1536 1536 1536 1536 1536 1542 1542 1542 1542 1542 1542 1549 1542 1542 1542 1542 1542 1542 1542 1542 1542 1542 1542 1542 1542 1542 1542 1542 1542 1542 1542 1542 1016 1016 1016 1013 1013 1013 1013 1010 1013 1013 1013 1013 1016 1016 1016 0 1556 1556 1556 1556 1556 1563 1556 1556 1563 1563 1563 1563 1563 1563 1563 1563 1563 1563 1563 1571 1563 1563 1563 1563 1563 1563 1563 1571 1571 1571 1571 1571 1571 1571 1571 1571 1571 1571 1571 1571 1571 1571 1571 1571 1571 1571 1578 1578 1578 1585 1585 1585 1585 1578 1578 1585 1585 1578 1585 1592 1592 1592 1600 1446 1446 1446 1446 1446 1440 1440 1440 1440 1592 1592 1592 1592 1592 1592 1592 1592 1592 1592 1592 1592 1592 1592 1592 1592 1592 1600 1600 1592 1600 1600 1600 1600 1600 1600 1600 1600 1607 1600 1600 1600 1600 1607 1600 1600 1600 1607 1607 1607 1607 1607 1615 1615 1615 1615 1615 1615 1615 1615 1615 1615 1622 1622 1622 1622 1622 1622 1622 1622 1622 1622 1622 1622 1622 1622 1622 1622 1622 1622 1615 1615 1615 1615 1622 1622 1622 1622 1622 1622 1622 1622 1622 1622 1622 1622 1622 1622 1622 1622 1622 1630 1630 1630 1630 1622 1622 1622 1047 1047 1047 1050 1050 1050 1047 1047 1047 1047 1050 1050 1050 1050 1050 1050 1050 1630 1630 1638 1638 1638 1638 1638 1638 1638 1638 1645 1645 1645 1638 1638 1638 1638 1638 1630 1630 1638 1638 1638 1638 1638 1645 1645 1645 1653 1653 1653 1653 1653 1653 1653 1653 1653 1653 1653 1653 1653 1653 1661 1661 1661 1653 1653 1653 1653 1653 1653 1653 1653 1653 1653 1653 1653 1661 1661 1661 1661 1661 1661 1661 1661 1661 1661 1661 1661 1661 1661 1661 1661 1661 1661 1661 1661 1661 1661 1661 1661 1661 1661 1661 1661 1661 1669 1669 1669 1669 1669 1669 1669 1669 1669 1669 1669 1677 1677 1677 1677 1686 1686 1686 1686 1677 1677 1677 1677 1677 1677 1686 1686 1686 1686 1686 1686 1686 1686 1686 1686 1694 1686 1686 1686 1686 1686 1694 1694 1694 1694 1694 1694 1702 1702 1702 1702 1702 1702 1702 1702 1711 0 0 0 0 0 0 0 0 0 0 0 0 0 0 0 0 0 0 0 0 0 0 0 0 0 0 0 0 0 0 0 0 0 0 0 0 0 0 0 0 0
    1515 1515 1515 1515 1515 1522 1522 1515 1515 1515 1515 1515 1515 1515 1515 1515 1522 1522 1515 1515 1515 1515 1515 1515 1522 1522 1522 1529 1529 1529 1529 1529 1529 1529 1529 1529 1529 1529 1529 1529 1529 1529 1529 1529 1536 1536 1536 1536 1536 1536 1542 1536 1536 1536 1536 1536 1536 1542 1536 1542 1542 1536 1536 1536 1536 1542 1542 1542 1542 1542 1542 1542 1542 1542 1542 1542 1542 1542 1542 1542 1542 1542 1542 1542 1542 1542 1542 1542 1542 1542 1542 1542 1542 1542 1016 1016 1013 1013 1013 1010 1010 1010 1010 1010 1013 1016 1016 1016 1016 0 1556 1556 1556 1556 1556 1556 1556 1556 1563 1563 1563 1563 1563 1563 1563 1563 1563 1563 1563 1571 1563 1563 1563 1563 1563 1563 1571 1571 1571 1571 1571 1571 1571 1571 1578 1578 1571 1571 1571 1571 1571 1571 1571 1571 1571 1571 1578 1578 1585 1585 1585 1585 1585 1585 1585 1585 1585 1578 1585 1585 1592 1592 1440 1440 1440 1440 1440 1446 1440 1440 1440 1440 1592 1592 1592 1592 1592 1592 1592 1592 1592 1592 1592 1592 1592 1592 1592 1592 1592 1600 1600 1592 1592 1600 1600 1600 1600 1600 1600 1607 1607 1607 1607 1600 1600 1607 1600 1600 1600 1600 1600 1607 1607 1607 1607 1615 1615 1615 1615 1615 1615 1615 1615 1615 1622 1622 1622 1622 1622 1622 1622 1622 1622 1622 1622 1622 1622 1622 1622 1622 1622 1622 1615 1615 1615 1615 1622 1615 1622 1622 1622 1622 1622 1622 1622 1622 1622 1622 1622 1622 1622 1622 1622 1630 1630 1630 1630 1622 1622 1622 1050 1050 1050 1050 1050 1050 1047 1047 1047 1044 1047 1047 1050 1050 1047 1050 1050 1630 1630 1638 1638 1638 1638 1638 1638 1638 1638 1638 1645 1638 1638 1638 1638 1638 1638 1630 1638 1638 1638 1638 1638 1638 1638 1645 1645 1645 1653 1645 1653 1653 1653 1653 1653 1653 1653 1653 1653 1653 1653 1661 1661 1661 1653 1653 1653 1661 1653 1653 1661 1653 1653 1653 1653 1653 1653 1653 1653 1661 1661 1661 1661 1661 1661 1661 1661 1661 1661 1661 1661 1661 1661 1661 1661 1661 1661 1661 1661 1661 1661 1661 1661 1661 1661 1669 1669 1669 1669 1669 1669 1677 1669 1669 1669 1677 1677 1677 1677 1677 1686 1686 1686 1686 1677 1686 1677 1677 1677 1677 1686 1686 1686 1686 1686 1686 1694 1686 1686 1686 1686 1686 1686 1686 1686 1694 1694 1694 1694 1694 1694 1694 1694 1702 1702 1702 1702 1702 1702 1702 1702 0 0 0 0 0 0 0 0 0 0 0 0 0 0 0 0 0 0 0 0 0 0 0 0 0 0 0 0 0 0 0 0 0 0 0 0 0 0 0 0 0
    1515 1515 1509 1515 1515 1515 1515 1515 1515 1515 1515 1515 1515 1515 1515 1515 1515 1515 1515 1515 1515 1515 1522 1522 1522 1522 1529 1529 1529 1529 1529 1529 1529 1529 1522 1529 1522 1522 1529 1522 1529 1529 1529 1529 1529 1536 1536 1536 1536 1536 1536 1536 1536 1536 1536 1536 1536 1536 1536 1536 1536 1536 1536 1536 1536 1542 1542 1542 1542 1542 1542 1542 1542 1542 1542 1542 1542 1542 1542 1542 1542 1542 1542 1542 1542 1542 1542 1542 1542 1542 1542 1542 1542 1542 1013 1013 1013 1013 1010 1010 1010 1010 1010 1010 1013 1013 1013 1013 1016 0 1556 1556 1556 1556 1556 1563 1563 1563 1563 1563 1563 1563 1563 1563 1563 1563 1563 1563 1563 1563 1563 1563 1563 1563 1563 1563 1571 1571 1571 1571 1571 1571 1571 1578 1578 1578 1571 1571 1571 1571 1571 1571 1571 1571 1571 1571 1578 1578 1578 1585 1578 1578 1585 1578 1585 1585 1585 1578 1585 1592 1592 1592 1440 1440 1440 1440 1440 1440 1440 1440 1440 1600 1600 1592 1592 1592 1592 1592 1592 1592 1592 1592 1592 1592 1592 1592 1592 1592 1592 1600 1600 1600 1600 1600 1600 1600 1600 1600 1607 1607 1607 1607 1607 1607 1607 1607 1607 1600 1600 1600 1600 1607 1607 1607 1607 1615 1615 1615 1615 1615 1615 1615 1615 1615 1615 1622 1622 1622 1622 1622 1622 1622 1622 1622 1622 1622 1622 1622 1622 1622 1622 1622 1615 1615 1615 1615 1622 1622 1622 1622 1622 1622 1622 1622 1622 1622 1622 1622 1622 1622 1622 1622 1622 1622 1630 1630 1630 1622 1622 1622 1047 1047 1050 1050 1050 1050 1047 1047 1047 1047 1047 1047 1047 1047 1047 1047 1047 1047 1630 1638 1638 1638 1638 1638 1638 1645 1645 1645 1645 1645 1638 1638 1638 1638 1638 1630 1638 1638 1638 1638 1630 1638 1638 1645 1645 1645 1653 1653 1653 1653 1653 1653 1653 1653 1653 1653 1653 1653 1653 1653 1653 1653 1653 1653 1653 1653 1653 1653 1653 1661 1653 1661 1653 1653 1653 1653 1653 1653 1661 1661 1661 1661 1661 1661 1661 1661 1661 1669 1661 1661 1661 1661 1661 1661 1661 1661 1661 1661 1661 1661 1661 1661 1661 1669 1669 1669 1677 1677 1677 1677 1669 1669 1669 1669 1669 1677 1677 1677 1677 1686 1686 1686 1677 1677 1677 1677 1686 1677 1686 1686 1686 1686 1686 1694 1694 1686 1686 1686 1694 1686 1686 1686 1686 1686 1694 1694 1694 1694 1694 1694 1694 1702 1702 1702 1694 1694 1702 1702 1702 0 0 0 0 0 0 0 0 0 0 0 0 0 0 0 0 0 0 0 0 0 0 0 0 0 0 0 0 0 0 0 0 0 0 0 0 0 0 0 0 0
    1515 1515 1515 1515 1515 1515 1515 1515 1515 1515 1515 1515 1515 1515 1515 1515 1515 1515 1515 1515 1515 1515 1522 1522 1522 1522 1529 1529 1529 1529 1529 1529 1529 1529 1529 1529 1529 1522 1529 1529 1529 1529 1536 1536 1536 1536 1536 1542 1542 1542 1536 1536 1536 1536 1542 1542 1536 1542 1536 1536 1536 1536 1536 1536 1536 1542 1542 1542 1542 1542 1542 1542 1542 1542 1542 1542 1542 1542 1542 1542 1542 1542 1542 1542 1542 1542 1542 1542 1542 1542 1542 1542 1542 1016 1013 1013 1013 1013 1010 1010 1007 1007 1010 1010 1010 1013 1013 1016 0 1556 1549 1549 1549 1556 1556 1556 1556 1556 1563 1563 1563 1563 1563 1563 1563 1563 1563 1563 1563 1563 1563 1563 1563 1563 1563 1563 1571 1571 1571 1571 1571 1571 1578 1578 1578 1578 1571 1571 1571 1571 1571 1571 1571 1571 1571 1571 1578 1578 1585 1585 1578 1578 1578 1578 1578 1578 1578 1578 1585 1585 1592 1592 1440 1440 1440 1440 1440 1440 1440 1440 1440 1592 1592 1592 1592 1592 1592 1592 1592 1592 1592 1592 1592 1592 1592 1592 1592 1592 1592 1600 1600 1600 1600 1600 1600 1600 1600 1600 1607 1607 1607 1607 1607 1607 1607 1607 1607 1600 1600 1600 1600 1607 1607 1607 1615 1615 1615 1615 1615 1615 1615 1615 1615 1622 1615 1622 1622 1622 1622 1622 1622 1622 1622 1622 1622 1622 1622 1622 1622 1622 1622 1622 1622 1622 1622 1622 1622 1622 1622 1622 1622 1622 1622 1622 1622 1622 1622 1622 1622 1622 1622 1622 1622 1622 1630 1630 1630 1622 1622 1630 1630 1050 1050 1050 1050 1047 1047 1047 1047 1047 1047 1047 1047 1047 1047 1047 1047 1047 1047 1638 1638 1638 1638 1645 1645 1645 1645 1645 1645 1645 1645 1638 1638 1638 1638 1630 1638 1638 1638 1638 1638 1638 1638 1645 1638 1645 1645 1645 1645 1653 1653 1653 1653 1653 1653 1653 1653 1653 1653 1653 1653 1653 1653 1653 1653 1653 1653 1653 1653 1653 1653 1653 1653 1653 1653 1653 1653 1653 1661 1661 1661 1661 1661 1661 1661 1661 1661 1661 1661 1661 1661 1661 1661 1661 1661 1661 1661 1661 1661 1661 1661 1661 1661 1669 1669 1677 1677 1677 1677 1677 1677 1669 1669 1669 1669 1677 1677 1677 1677 1677 1686 1686 1677 1686 1686 1686 1686 1686 1686 1686 1686 1686 1694 1694 1694 1694 1686 1694 1686 1686 1686 1686 1686 1686 1686 1686 1694 1694 1702 1702 1702 1702 1702 1694 1694 1694 1694 1694 1694 0 0 0 0 0 0 0 0 0 0 0 0 0 0 0 0 0 0 0 0 0 0 0 0 0 0 0 0 0 0 0 0 0 0 0 0 0 0 0 0 0
    1515 1515 1515 1515 1515 1515 1515 1515 1515 1515 1515 1515 1515 1515 1515 1515 1515 1515 1515 1515 1515 1515 1522 1522 1522 1529 1529 1529 1529 1529 1529 1529 1529 1536 1529 1529 1529 1529 1529 1529 1522 1529 1529 1529 1536 1536 1536 1542 1542 1542 1542 1542 1542 1542 1542 1542 1536 1536 1536 1536 1536 1536 1536 1536 1536 1542 1542 1542 1542 1542 1542 1542 1542 1542 1542 1542 1542 1542 1542 1542 1542 1542 1542 1542 1542 1542 1542 1542 1542 1542 1542 1007 1004 1016 1013 1013 1013 1013 1010 1007 1007 1007 1010 1010 1010 1013 1013 1013 0 1556 1552 1552 1549 1556 1556 1556 1556 1556 1563 1563 1563 1563 1563 1563 1563 1563 1563 1563 1563 1563 1563 1563 1563 1563 1563 1563 1563 1563 1571 1571 1571 1571 1571 1571 1578 1571 1571 1571 1571 1571 1571 1571 1571 1571 1571 1571 1578 1578 1578 1585 1578 1578 1585 1578 1578 1585 1578 1578 1585 1585 1592 1434 1440 1440 1440 1440 1446 1446 1446 1440 1446 1592 1592 1592 1592 1592 1592 1592 1592 1592 1592 1592 1592 1592 1592 1592 1592 1600 1600 1600 1600 1600 1600 1600 1600 1600 1600 1607 1607 1607 1607 1615 1607 1607 1607 1607 1607 1600 1600 1600 1600 1607 1607 1607 1615 1615 1615 1622 1622 1622 1622 1615 1622 1622 1615 1622 1622 1622 1622 1622 1622 1622 1622 1622 1622 1622 1622 1622 1622 1622 1622 1622 1622 1622 1622 1622 1622 1622 1622 1622 1622 1630 1622 1630 1630 1630 1630 1622 1622 1622 1622 1622 1622 1622 1630 1630 1630 1622 1622 1622 0 1050 1047 1050 1047 1047 1047 1047 1047 1047 1047 1047 1047 1047 1047 1047 1047 1047 1047 1638 1638 1638 1638 1645 1645 1638 1645 1645 1645 1645 1645 1638 1638 1638 1638 1638 1638 1638 1638 1638 1638 1638 1638 1645 1638 1645 1653 1653 1653 1645 1653 1653 1653 1653 1653 1653 1653 1653 1653 1653 1653 1653 1653 1653 1653 1653 1653 1653 1653 1653 1653 1653 1653 1653 1653 1653 1653 1653 1653 1653 1661 1661 1661 1661 1661 1661 1661 1661 1661 1661 1661 1661 1661 1661 1661 1661 1661 1661 1661 1661 1661 1661 1661 1661 1669 1669 1677 1677 1677 1677 1677 1677 1669 1677 1677 1677 1677 1677 1677 1677 1686 1686 1686 1686 1686 1686 1686 1686 1686 1686 1686 1686 1694 1694 1694 1694 1694 1694 1694 1686 1686 1686 1686 1686 1694 1686 1694 1694 1702 1702 1702 1702 1702 1694 1694 1694 1694 1694 1694 0 0 0 0 0 0 0 0 0 0 0 0 0 0 0 0 0 0 0 0 0 0 0 0 0 0 0 0 0 0 0 0 0 0 0 0 0 0 0 0 0
    1509 1509 1509 1515 1515 1515 1515 1515 1515 1515 1515 1515 1515 1515 1515 1515 1515 1515 1515 1515 1515 1515 1522 1522 1529 1529 1529 1529 1529 1529 1529 1529 1529 1529 1529 1529 1522 1522 1529 1529 1522 1522 1529 1536 1536 1536 1536 1542 1542 1542 1542 1536 1536 1536 1542 1536 1536 1536 1536 1536 1542 1536 1536 1542 1542 1542 1542 1542 1542 1542 1542 1542 1542 1542 1542 1542 1542 1542 1542 1542 1542 1542 1542 1542 1542 1542 1542 1542 1542 1542 1542 1004 1004 1013 1010 1010 1010 1010 1007 1007 1007 1007 1010 1010 1010 1010 1013 0 0 1563 1556 1556 1552 1556 1556 1556 1556 1556 1563 1563 1563 1563 1563 1563 1563 1563 1563 1563 1563 1563 1563 1563 1563 1563 1563 1563 1571 1571 1571 1571 1571 1571 1571 1571 1578 1578 1571 1571 1571 1571 1571 1571 1571 1571 1571 1571 1578 1578 1578 1578 1578 1578 1585 1578 1578 1585 1578 1578 1585 1585 1585 1440 1440 1440 1440 1440 1446 1452 1446 1446 1452 1592 1592 1592 1592 1592 1592 1592 1592 1592 1592 1592 1592 1592 1592 1592 1592 1592 1600 1600 1600 1600 1600 1600 1600 1600 1600 1607 1607 1607 1607 1615 1615 1607 1607 1615 1607 1607 1607 1600 1607 1607 1607 1607 1615 1615 1615 1622 1622 1615 1615 1615 1622 1622 1615 1622 1622 1622 1622 1615 1615 1622 1622 1622 1622 1622 1622 1622 1622 1622 1622 1622 1622 1615 1615 1622 1622 1622 1622 1622 1622 1622 1622 1622 1622 1622 1622 1622 1622 1622 1622 1622 1622 1622 1630 1630 1630 1630 1622 1630 0 1050 1047 1050 1050 1047 1047 1047 1047 1047 1044 1044 1047 1047 1047 1047 1047 1047 1047 1630 1638 1638 1638 1638 1645 1638 1638 1638 1638 1638 1638 1638 1638 1638 1638 1638 1638 1638 1638 1638 1638 1638 1645 1645 1645 1645 1645 1653 1653 1653 1653 1653 1653 1653 1653 1653 1653 1653 1653 1653 1653 1653 1653 1653 1653 1653 1653 1653 1653 1653 1653 1653 1653 1653 1653 1653 1653 1653 1653 1653 1661 1661 1661 1661 1661 1661 1661 1661 1661 1661 1661 1661 1661 1661 1661 1661 1661 1661 1661 1661 1661 1661 1661 1661 1669 1669 1677 1677 1677 1686 1677 1677 1677 1677 1677 1677 1677 1677 1677 1677 1677 1686 1677 1686 1686 1686 1686 1686 1686 1686 1686 1694 1694 1694 1694 1694 1694 1694 1694 1686 1686 1686 1686 1686 1686 1686 1686 1694 1694 1694 1694 1702 1694 1694 1694 1694 1694 1694 1694 0 0 0 0 0 0 0 0 0 0 0 0 0 0 0 0 0 0 0 0 0 0 0 0 0 0 0 0 0 0 0 0 0 0 0 0 0 0 0 0 0
    1509 1509 1509 1509 1515 1515 1515 1515 1515 1515 1515 1515 1515 1515 1515 1515 1515 1515 1515 1515 1515 1515 1522 1522 1529 1529 1529 1529 1529 1529 1522 1529 1529 1529 1529 1529 1529 1529 1529 1529 1529 1529 1536 1536 1536 1536 1542 1542 1542 1542 1542 1542 1542 1536 1542 1536 1536 1536 1536 1536 1542 1542 1542 1542 1542 1542 1542 1542 1542 1542 1542 1542 1542 1542 1542 1542 1542 1542 1542 1542 1542 1542 1542 1542 1542 1542 1542 1542 1542 1542 1542 1542 1016 1013 1010 1010 1010 1010 1010 1010 1010 1007 1010 1010 1010 1010 1010 0 0 1571 1563 1563 1556 1556 1556 1556 1556 1556 1563 1563 1563 1563 1563 1563 1563 1563 1563 1563 1563 1563 1563 1563 1563 1563 1563 1563 1563 1571 1571 1571 1571 1571 1571 1571 1571 1571 1571 1571 1571 1571 1571 1571 1571 1571 1571 1571 1578 1578 1585 1585 1578 1578 1578 1578 1578 1578 1578 1578 1585 1585 1585 1440 1440 1440 1440 1440 1446 1452 1446 1446 1452 1592 1592 1592 1592 1592 1592 1592 1592 1592 1592 1592 1592 1592 1592 1592 1592 1592 1592 1600 1600 1600 1600 1600 1600 1600 1600 1600 1607 1607 1607 1615 1615 1615 1615 1615 1615 1607 1607 1607 1607 1607 1607 1615 1615 1615 1615 1622 1615 1615 1615 1615 1615 1615 1615 1615 1615 1615 1622 1622 1615 1622 1622 1622 1622 1622 1622 1622 1622 1622 1622 1622 1622 1615 1615 1622 1622 1622 1622 1622 1622 1622 1622 1622 1622 1622 1622 1622 1622 1622 1622 1622 1622 1622 1630 1630 1630 1630 1630 1630 0 0 1047 1047 1047 1047 1047 1044 1044 1044 1044 1044 1047 1047 1047 1047 1047 1047 1047 1638 1638 1638 1638 1645 1645 1638 1638 1638 1638 1638 1638 1638 1638 1638 1638 1638 1638 1638 1638 1638 1638 1638 1638 1638 1638 1645 1645 1645 1645 1645 1653 1653 1653 1653 1653 1653 1653 1653 1653 1653 1653 1653 1653 1653 1653 1653 1653 1653 1653 1653 1653 1653 1653 1653 1653 1653 1653 1653 1653 1653 1661 1661 1661 1661 1661 1661 1661 1661 1661 1661 1661 1661 1661 1661 1661 1661 1661 1661 1661 1661 1661 1661 1661 1661 1669 1669 1677 1677 1677 1686 1686 1677 1677 1677 1677 1677 1677 1677 1677 1677 1677 1677 1677 1677 1686 1677 1686 1686 1686 1686 1686 1686 1694 1694 1694 1694 1694 1694 1694 1694 1686 1686 1686 1686 1694 1694 1694 1694 1694 1694 1694 1694 1694 1694 1694 1694 1694 1694 1694 0 0 0 0 0 0 0 0 0 0 0 0 0 0 0 0 0 0 0 0 0 0 0 0 0 0 0 0 0 0 0 0 0 0 0 0 0 0 0 0 0
    1509 1509 1509 1509 1515 1515 1515 1515 1515 1515 1515 1515 1515 1515 1515 1515 1515 1515 1515 1515 1515 1522 1522 1522 1522 1522 1522 1522 1522 1522 1522 1522 1522 1529 1529 1529 1529 1529 1529 1529 1529 1529 1529 1536 1536 1536 1536 1536 1536 1536 1536 1536 1536 1536 1536 1536 1536 1536 1536 1542 1542 1536 1536 1542 1542 1542 1542 1542 1542 1542 1542 1542 1542 1542 1542 1542 1542 1542 1542 1542 1542 1542 1542 1542 1542 1542 1542 1542 1542 1542 1542 1542 1016 1016 1013 1013 1013 1013 1013 1013 1013 1010 1013 1013 1013 1013 0 0 0 1563 1563 1563 1549 1556 1556 1556 1549 1556 1556 1563 1563 1563 1563 1563 1563 1563 1563 1563 1563 1563 1563 1563 1563 1563 1563 1563 1563 1571 1571 1571 1571 1571 1571 1571 1571 1571 1571 1571 1571 1571 1571 1571 1571 1571 1571 1578 1578 1578 1578 1578 1578 1578 1578 1578 1578 1578 1578 1578 1578 1578 1578 1512 1440 1434 1440 1440 1440 1446 1446 1446 1452 1592 1592 1592 1592 1592 1592 1592 1592 1592 1592 1592 1592 1592 1592 1600 1600 1600 1600 1600 1600 1600 1600 1600 1600 1600 1600 1600 1607 1607 1607 1615 1615 1615 1615 1615 1615 1607 1607 1607 1607 1607 1615 1615 1615 1615 1615 1622 1615 1615 1615 1615 1615 1615 1615 1615 1615 1615 1622 1615 1615 1615 1622 1622 1622 1622 1622 1622 1622 1622 1622 1622 1622 1615 1622 1622 1622 1622 1622 1622 1622 1622 1622 1622 1622 1622 1622 1622 1622 1622 1622 1622 1622 1622 1630 1630 1630 1630 1630 1630 0 0 0 1047 1047 1047 1047 1044 1044 1044 1044 1044 1047 1047 1047 1047 1047 1047 1047 1638 1638 1638 1638 1638 1645 1638 1645 1638 1638 1638 1638 1638 1638 1638 1638 1638 1645 1638 1645 1638 1638 1638 1645 1638 1638 1645 1645 1645 1645 1653 1653 1653 1653 1653 1653 1653 1653 1653 1653 1653 1653 1653 1653 1653 1653 1653 1653 1653 1653 1653 1653 1653 1653 1653 1653 1653 1653 1653 1653 1653 1661 1661 1661 1661 1661 1661 1661 1661 1661 1661 1661 1661 1661 1661 1661 1661 1661 1661 1661 1661 1661 1661 1661 1661 1661 1669 1669 1669 1677 1677 1677 1677 1677 1677 1677 1677 1677 1677 1677 1677 1677 1677 1677 1677 1686 1677 1677 1686 1686 1686 1686 1686 1694 1694 1694 1694 1694 1686 1694 1686 1694 1686 1686 1686 1686 1694 1694 1694 1694 1694 1702 1694 1694 1694 1694 1694 1694 1694 1694 0 0 0 0 0 0 0 0 0 0 0 0 0 0 0 0 0 0 0 0 0 0 0 0 0 0 0 0 0 0 0 0 0 0 0 0 0 0 0 0 0
    1509 1509 1509 1509 1515 1515 1515 1515 1515 1515 1515 1515 1515 1515 1515 1515 1515 1515 1515 1515 1515 1522 1522 1522 1522 1529 1522 1522 1522 1522 1522 1522 1529 1529 1529 1529 1529 1529 1529 1536 1529 1529 1536 1536 1536 1536 1536 1536 1536 1536 1536 1536 1536 1536 1536 1536 1536 1536 1536 1536 1536 1536 1536 1542 1542 1542 1542 1542 1542 1542 1542 1542 1542 1542 1542 1542 1542 1542 1542 1542 1542 1542 1542 1542 1542 1542 1542 1542 1549 1549 1549 1542 1016 1016 1013 1010 1010 1010 1010 1013 1013 1013 1013 1013 1013 1016 0 0 1556 1563 1563 1549 1549 1549 1556 1549 1549 1549 1556 1556 1556 1556 1556 1563 1563 1563 1563 1563 1563 1563 1563 1563 1563 1571 1563 1563 1563 1571 1571 1571 1571 1571 1571 1571 1571 1571 1571 1571 1571 1571 1571 1571 1571 1571 1571 1578 1578 1578 1578 1578 1578 1578 1578 1578 1578 1578 1578 1578 1585 1585 1585 1585 1440 1446 1446 1440 1446 1446 1446 1446 1522 1585 1592 1592 1592 1592 1592 1592 1592 1592 1592 1600 1600 1592 1592 1592 1592 1592 1592 1592 1592 1600 1600 1600 1600 1600 1600 1600 1607 1607 1607 1615 1615 1615 1615 1615 1615 1615 1615 1607 1615 1615 1615 1615 1615 1615 1615 1622 1615 1615 1615 1615 1615 1615 1615 1615 1615 1615 1622 1622 1615 1615 1622 1622 1622 1622 1622 1622 1622 1615 1615 1615 1615 1615 1615 1622 1622 1622 1622 1622 1622 1622 1622 1622 1622 1622 1622 1622 1622 1622 1622 1622 1622 1622 1630 1630 1630 1630 1630 1630 1630 0 0 1047 1050 1050 1050 1047 1047 1047 1047 1047 1047 1050 1050 1050 1050 1050 1050 1050 1638 1638 1638 1638 1645 1638 1638 1638 1638 1638 1638 1638 1638 1638 1638 1638 1638 1645 1645 1645 1645 1645 1645 1645 1638 1638 1645 1645 1645 1645 1645 1645 1645 1645 1653 1645 1653 1653 1653 1653 1653 1653 1653 1653 1653 1653 1653 1653 1653 1653 1653 1653 1653 1653 1653 1653 1653 1653 1653 1653 1653 1653 1653 1653 1661 1661 1661 1661 1661 1661 1661 1661 1661 1661 1661 1661 1661 1661 1661 1661 1661 1661 1661 1661 1661 1669 1669 1677 1677 1677 1686 1677 1677 1677 1677 1677 1677 1677 1677 1677 1677 1677 1677 1677 1677 1677 1686 1686 1686 1686 1686 1686 1686 1686 1686 1686 1686 1686 1694 1694 1686 1686 1686 1686 1686 1686 1686 1694 1694 1694 1702 1694 1694 1694 1694 1694 1694 1694 1686 0 0 0 0 0 0 0 0 0 0 0 0 0 0 0 0 0 0 0 0 0 0 0 0 0 0 0 0 0 0 0 0 0 0 0 0 0 0 0 0 0
    1509 1509 1509 1509 1515 1515 1515 1515 1515 1515 1515 1515 1515 1515 1515 1515 1515 1515 1515 1515 1515 1515 1522 1522 1522 1522 1522 1522 1522 1522 1522 1522 1522 1529 1529 1529 1529 1536 1536 1536 1536 1536 1536 1536 1536 1536 1536 1536 1536 1536 1536 1536 1536 1536 1536 1536 1536 1536 1536 1536 1536 1536 1536 1536 1542 1542 1542 1542 1542 1542 1542 1542 1542 1542 1542 1542 1542 1542 1542 1542 1542 1542 1542 1542 1542 1542 1542 1542 1542 1542 1542 1542 1016 1007 1010 1010 1010 1010 1010 1013 1013 1013 1013 1013 1013 1016 0 0 1556 1556 1556 1552 1549 1549 1549 1549 1549 1549 1556 1556 1556 1556 1556 1563 1556 1556 1556 1563 1563 1563 1563 1563 1563 1563 1563 1563 1563 1571 1571 1571 1571 1571 1571 1571 1571 1571 1571 1571 1571 1571 1571 1571 1571 1571 1571 1571 1578 1578 1578 1578 1578 1578 1578 1578 1578 1578 1578 1578 1578 1578 1585 1585 1512 1446 1440 1446 1446 1452 1446 1446 1592 1585 1585 1585 1592 1592 1592 1592 1592 1592 1592 1600 1600 1592 1592 1592 1592 1592 1592 1592 1592 1600 1600 1600 1600 1600 1600 1600 1600 1600 1607 1607 1615 1607 1607 1615 1615 1615 1615 1615 1615 1615 1615 1615 1615 1615 1615 1615 1615 1615 1615 1615 1615 1615 1615 1615 1615 1615 1615 1615 1615 1615 1622 1622 1615 1615 1615 1615 1615 1615 1615 1615 1615 1615 1615 1622 1622 1622 1622 1622 1622 1622 1622 1622 1622 1622 1622 1622 1622 1622 1622 1622 1622 1622 1630 1630 1630 1630 1630 1630 1622 0 0 1047 1050 1050 1050 1050 1050 1050 1047 1047 1047 1050 1047 1050 1050 1050 1050 1050 1638 1638 1638 1638 1645 1638 1638 1638 1638 1638 1638 1638 1638 1638 1638 1638 1638 1638 1645 1638 1638 1638 1638 1638 1638 1638 1645 1645 1645 1645 1645 1645 1653 1645 1645 1645 1645 1653 1653 1653 1653 1653 1653 1653 1653 1653 1653 1653 1653 1653 1653 1653 1653 1653 1653 1653 1653 1653 1653 1653 1653 1653 1653 1653 1661 1661 1661 1661 1661 1661 1661 1661 1661 1661 1661 1661 1661 1661 1661 1661 1661 1661 1661 1661 1661 1669 1669 1669 1677 1677 1677 1677 1677 1677 1677 1677 1677 1677 1677 1677 1677 1677 1677 1677 1677 1677 1677 1677 1686 1686 1686 1686 1686 1694 1694 1686 1686 1686 1694 1694 1686 1686 1686 1686 1686 1686 1686 1694 1694 1694 1694 1702 1702 1694 1694 1694 1694 1694 1686 0 0 0 0 0 0 0 0 0 0 0 0 0 0 0 0 0 0 0 0 0 0 0 0 0 0 0 0 0 0 0 0 0 0 0 0 0 0 0 0 0
    1509 1509 1509 1509 1509 1509 1509 1515 1515 1515 1515 1515 1515 1515 1515 1515 1515 1515 1515 1515 1515 1515 1515 1515 1515 1522 1522 1522 1522 1522 1522 1522 1522 1529 1529 1536 1529 1529 1536 1536 1536 1536 1536 1536 1536 1536 1536 1536 1536 1536 1536 1536 1536 1536 1536 1536 1536 1536 1536 1536 1536 1536 1536 1536 1536 1536 1536 1536 1536 1542 1542 1542 1542 1542 1542 1542 1542 1542 1542 1542 1542 1542 1542 1542 1542 1542 1542 1549 1542 1549 1542 1542 1007 1007 1007 1007 1007 1010 1010 1013 1013 1013 1013 1013 1016 1016 0 1556 1556 1556 1556 1556 1549 1549 1549 1549 1549 1549 1549 1556 1556 1556 1556 1563 1563 1556 1556 1563 1563 1563 1563 1563 1563 1563 1563 1563 1563 1571 1571 1571 1571 1571 1571 1571 1571 1571 1571 1571 1571 1571 1571 1571 1571 1571 1571 1578 1578 1578 1578 1578 1578 1578 1578 1578 1578 1578 1578 1578 1578 1578 1585 1585 1585 1446 1446 1446 1446 1452 1446 1446 1440 1592 1592 1585 1592 1592 1592 1592 1592 1592 1592 1592 1592 1592 1592 1592 1592 1592 1592 1592 1592 1600 1600 1600 1600 1600 1600 1600 1600 1600 1607 1607 1615 1607 1607 1615 1615 1615 1615 1607 1615 1615 1615 1615 1615 1615 1615 1622 1615 1615 1615 1615 1615 1615 1615 1615 1615 1615 1615 1615 1615 1615 1615 1615 1615 1615 1615 1615 1615 1615 1615 1622 1622 1622 1622 1622 1622 1622 1622 1622 1622 1622 1622 1622 1622 1622 1622 1622 1622 1622 1630 1630 1630 1630 1630 1630 1630 1630 1630 1630 1622 0 0 0 1050 1050 1050 1050 1047 1047 1044 1047 1047 1047 1047 1047 1047 1047 1047 1047 1638 1638 1638 1638 1638 1638 1638 1638 1638 1630 1638 1630 1638 1638 1638 1638 1638 1645 1645 1638 1638 1638 1638 1645 1645 1645 1645 1645 1645 1645 1645 1653 1653 1653 1645 1645 1653 1653 1653 1653 1653 1653 1653 1653 1653 1653 1653 1653 1653 1653 1653 1653 1653 1653 1653 1653 1653 1653 1653 1653 1653 1653 1653 1653 1661 1661 1661 1661 1661 1661 1661 1661 1661 1661 1661 1661 1661 1661 1661 1661 1661 1661 1661 1661 1661 1669 1669 1669 1677 1677 1677 1677 1677 1677 1677 1677 1677 1677 1677 1677 1677 1677 1677 1669 1677 1677 1677 1677 1686 1686 1686 1686 1686 1686 1686 1686 1686 1686 1694 1694 1694 1686 1686 1686 1686 1686 1686 1694 1694 1694 1694 1702 1694 1694 1694 1694 1694 1694 1694 0 0 0 0 0 0 0 0 0 0 0 0 0 0 0 0 0 0 0 0 0 0 0 0 0 0 0 0 0 0 0 0 0 0 0 0 0 0 0 0 0
    1515 1515 1515 1515 1515 1515 1515 1515 1522 1522 1522 1522 1522 1522 1522 1522 1522 1522 1522 1522 1522 1522 1522 1522 1522 1522 1529 1522 1529 1529 1529 1529 1536 1536 1536 1536 1536 1536 1536 1536 1542 1542 1542 1536 1542 1542 1542 1542 1542 1542 1542 1542 1542 1542 1542 1542 1542 1542 1542 1542 1542 1542 1542 1542 1542 1542 1542 1542 1542 1542 1549 1549 1549 1549 1549 1549 1549 1549 1549 1549 1549 1549 1549 1549 1549 1549 1549 1549 1549 1552 1549 1549 1007 1007 1007 1007 1007 1007 1007 1010 1010 1010 1013 1013 1013 1016 1549 1556 1556 1556 1556 1556 1552 1552 1552 1556 1556 1556 1556 1556 1556 1556 1556 1556 1556 1556 1556 1563 1563 1563 1563 1563 1563 1563 1563 1571 1571 1571 1571 1571 1571 1571 1571 1571 1571 1571 1571 1571 1571 1571 1571 1571 1571 1571 1571 1571 1578 1571 1578 1578 1578 1578 1578 1578 1578 1578 1578 1578 1578 1578 1578 1585 1585 1452 1452 1458 1458 1458 1452 1452 1440 1592 1592 1592 1592 1592 1592 1592 1592 1592 1592 1592 1592 1592 1592 1592 1592 1592 1592 1592 1592 1600 1600 1592 1600 1600 1600 1600 1600 1600 1607 1607 1607 1607 1607 1607 1607 1607 1607 1607 1615 1615 1615 1615 1615 1615 1615 1615 1615 1615 1615 1615 1615 1615 1615 1615 1615 1615 1615 1615 1615 1615 1615 1615 1615 1615 1615 1615 1615 1615 1615 1622 1622 1622 1622 1622 1622 1622 1622 1622 1622 1622 1622 1622 1622 1622 1622 1622 1622 1622 1630 1630 1630 1630 1630 1630 1630 1630 1630 1630 1630 1630 0 0 1047 1050 1053 1050 1050 1050 1047 1047 1047 1047 1047 1047 1047 1047 1047 1638 1645 1638 1638 1638 1638 1638 1638 1638 1638 1630 1638 1630 1638 1638 1638 1638 1638 1645 1645 1638 1638 1638 1645 1645 1638 1638 1638 1645 1645 1645 1645 1645 1645 1645 1645 1653 1653 1653 1653 1653 1653 1653 1653 1653 1653 1653 1653 1653 1653 1653 1653 1653 1653 1653 1653 1653 1653 1653 1653 1653 1653 1653 1653 1661 1661 1661 1661 1661 1661 1661 1661 1661 1661 1661 1661 1661 1661 1661 1661 1661 1661 1661 1661 1661 1661 1661 1661 1669 1669 1669 1669 1669 1669 1669 1669 1677 1677 1677 1677 1677 1686 1677 1677 1677 1677 1677 1677 1677 1686 1686 1686 1686 1686 1686 1686 1686 1686 1686 1694 1694 1694 1694 1694 1694 1694 1694 1694 1694 1694 1694 1694 1694 1694 1694 1694 1694 1686 1686 1686 0 0 0 0 0 0 0 0 0 0 0 0 0 0 0 0 0 0 0 0 0 0 0 0 0 0 0 0 0 0 0 0 0 0 0 0 0 0 0 0 0
    1515 1515 1515 1515 1515 1515 1515 1515 1522 1522 1522 1522 1522 1522 1522 1522 1522 1522 1522 1522 1522 1522 1522 1522 1522 1522 1529 1522 1529 1529 1529 1536 1536 1536 1536 1542 1536 1536 1536 1542 1542 1542 1542 1536 1536 1542 1542 1542 1542 1542 1542 1542 1542 1542 1542 1542 1542 1542 1542 1542 1542 1542 1542 1542 1542 1542 1542 1542 1542 1542 1549 1549 1549 1549 1549 1549 1549 1549 1549 1549 1542 1542 1542 1549 1549 1549 1549 1549 1556 1556 1556 1556 1007 1004 1007 1007 1007 1007 1007 1010 1010 1010 1010 1013 1013 1013 1549 1549 1563 1563 1563 1563 1556 1556 1556 1563 1563 1563 1563 1563 1563 1563 1563 1563 1563 1563 1563 1563 1563 1571 1571 1571 1571 1571 1571 1571 1571 1578 1578 1578 1578 1578 1578 1578 1578 1578 1578 1578 1578 1578 1578 1578 1585 1585 1585 1578 1578 1578 1585 1585 1585 1585 1585 1585 1585 1585 1585 1585 1578 1578 1585 1585 1592 1522 1452 1458 1452 1458 1452 1452 1452 1600 1592 1585 1585 1592 1592 1592 1592 1592 1592 1600 1600 1592 1592 1592 1592 1592 1592 1592 1592 1600 1600 1592 1592 1600 1600 1600 1600 1600 1607 1607 1607 1607 1607 1607 1607 1607 1607 1607 1615 1615 1615 1615 1615 1615 1615 1615 1615 1615 1615 1615 1615 1615 1615 1615 1615 1615 1615 1615 1615 1615 1615 1615 1615 1615 1615 1615 1615 1615 1615 1622 1622 1622 1622 1622 1622 1622 1622 1622 1622 1615 1615 1615 1622 1622 1622 1622 1622 1622 1630 1630 1630 1630 1630 1630 1630 1630 1630 1630 1630 1630 1615 0 1047 1047 1050 1050 1047 1047 1047 1044 1047 1047 1047 1047 1047 1047 1047 1638 1047 1638 1638 1638 1638 1645 1645 1638 1638 1638 1638 1638 1638 1638 1638 1638 1638 1645 1645 1638 1638 1638 1638 1645 1638 1638 1638 1645 1645 1638 1645 1645 1645 1653 1645 1653 1653 1653 1653 1653 1653 1653 1653 1653 1653 1653 1653 1653 1653 1653 1653 1653 1653 1653 1653 1653 1653 1653 1653 1653 1653 1653 1653 1653 1661 1661 1661 1661 1661 1661 1661 1661 1661 1661 1661 1661 1661 1661 1661 1661 1661 1661 1669 1669 1669 1669 1669 1669 1669 1669 1669 1669 1669 1669 1669 1669 1669 1677 1677 1677 1677 1677 1669 1669 1669 1677 1677 1677 1686 1686 1686 1686 1686 1686 1686 1686 1686 1686 1686 1686 1686 1686 1694 1694 1694 1694 1694 1686 1686 1694 1694 1694 1694 1702 1694 1694 1694 1694 1694 0 0 0 0 0 0 0 0 0 0 0 0 0 0 0 0 0 0 0 0 0 0 0 0 0 0 0 0 0 0 0 0 0 0 0 0 0 0 0 0 0</data></depth>
</opencv_storage>
