<?xml version="1.0"?>
<opencv_storage>
<depth type_id="opencv-matrix">
  <rows>43</rows>
  <cols>480</cols>
  <dt>w</dt>
  <data>
    0 0 0 0 0 0 0 0 0 0 0 0 0 0 0 0 0 0 0 0 0 0 0 0 0 0 0 0 0 0 0 0 0 0 0 0 0 0 0 0 0 0 0 0 0 0 0 0 0 0 0 0 0 0 0 0 0 0 0 0 1025 1028 1031 1031 1034 1037 1037 1040 1040 1044 1044 1044 1044 1050 1053 1053 1053 1053 1056 1056 1056 1056 1060 1060 1060 1063 1063 1063 1066 1066 1067 1067 1069 1069 1073 1076 1079 1079 1079 1079 1083 1083 1086 1086 1086 1090 1093 1093 1093 1097 1097 1097 1100 1100 1104 1104 1104 1111 1111 1111 1111 1114 1114 1114 1118 1118 1122 1122 1125 1125 1125 1129 1129 1133 1133 1133 1133 1136 1140 1140 1144 1144 1144 1148 1148 1151 1155 1155 1155 1159 1159 1159 1159 1163 1163 1167 1167 1171 1171 1171 1175 1175 1175 1179 1179 1187 1187 1191 1191 1195 1195 1200 1204 1204 1204 1204 1208 1208 1208 1208 1212 1212 1216 1216 1221 1225 1225 1229 1234 1238 1238 1238 1243 1243 1243 1247 1252 1252 1256 1261 1261 1261 1261 1265 1265 1270 1270 1275 1275 1275 1280 1280 1280 1284 1289 1289 1294 1294 1294 1299 1299 1299 1299 1304 1304 1309 1314 1314 1319 1324 1324 1329 1329 1334 1334 1334 1339 1339 1339 1339 1344 1344 1350 1355 1355 1355 1360 1360 1360 1366 1366 1371 1371 1376 1376 1376 1382 1382 1388 1388 1393 1393 1399 1404 1404 1404 1404 1404 1416 1416 1422 1422 1422 1422 1422 1422 1428 1428 1428 1428 1428 1434 1440 1440 1446 1446 1446 1446 1452 1509 1509 1515 1509 1509 1502 1502 1496 1496 1496 1489 1483 1477 1477 1477 1470 1470 1464 1458 1458 1452 1452 1452 1452 1446 1440 1446 1440 1434 1434 1428 1428 1422 1422 1422 1416 1416 1410 1410 1404 1404 1399 1399 1393 1393 1388 1382 1382 1382 1376 1376 1376 1371 1371 1371 1366 1366 1360 1360 1355 1355 1355 1350 1344 1344 1344 1339 1339 1339 1339 1334 1334 1329 1324 1324 1319 1319 1319 1314 1309 1304 1304 1299 1299 1299 1294 1294 1294 1294 1294 1289 1284 1280 1280 1275 1275 1275 1275 1275 1270 1265 1261 1261 1256 1256 1256 1252 1252 1247 1247 1243 1243 1243 1243 1238 1238 1238 1234 1229 1229 1221 1221 1221 1216 1212 1208 1208 1208 1204 1204 1204 1200 1200 1200 1195 1195 1191 1187 1187 1183 1179 1179 1175 1175 1175 1171 1171 1171 1171 1171 0 0 0 0 0 0 0 0 0 0 0 0 0 0 0 0 0 0 0 0 0 0 0 0 0 0 0 0 0 0 0 0 0 0 0 0 0 0 0 0 0
    0 0 0 0 0 0 0 0 0 0 0 0 0 0 0 0 0 0 0 0 0 0 0 0 0 0 0 0 0 0 0 0 0 0 0 0 0 0 0 1007 1007 1010 1010 1010 1010 1013 1013 1013 1013 1019 1022 1022 1025 1028 1028 1028 1031 1031 1028 1028 1031 1034 1034 1034 1037 1037 1040 1040 1044 1047 1047 1047 1047 1050 1053 1053 1056 1056 1056 1060 1060 1060 1060 1063 1063 1063 1063 1066 1066 1067 1069 1069 1069 1073 1073 1076 1076 1079 1083 1083 1086 1086 1086 1086 1090 1090 1093 1093 1097 1097 1100 1100 1100 1104 1104 1107 1107 1111 1114 1114 1114 1114 1118 1118 1122 1122 1125 1125 1129 1129 1129 1133 1133 1136 1136 1136 1136 1140 1144 1144 1148 1151 1151 1155 1155 1155 1155 1155 1155 1159 1159 1159 1163 1163 1167 1167 1171 1171 1175 1175 1175 1175 1175 1179 1179 1183 1191 1191 1195 1200 1200 1204 1204 1204 1208 1208 1208 1208 1212 1212 1216 1216 1216 1221 1225 1225 1229 1234 1238 1238 1238 1243 1243 1247 1247 1252 1252 1256 1261 1261 1261 1261 1265 1265 1267 1270 1270 1275 1275 1280 1280 1280 1284 1284 1289 1289 1294 1299 1299 1299 1299 1299 1299 1304 1309 1314 1314 1319 1319 1324 1324 1329 1329 1329 1334 1334 1334 1339 1339 1339 1344 1344 1350 1355 1355 1355 1360 1360 1360 1360 1366 1371 1371 1376 1376 1376 1382 1382 1382 1388 1393 1393 1399 1404 1404 1404 1404 1404 1416 1416 1422 1422 1422 1422 1422 1422 1422 1422 1428 1428 1428 1434 1440 1440 1446 1446 1446 1446 1446 1515 1515 1515 1515 1509 1502 1496 1496 1496 1496 1489 1483 1477 1477 1477 1470 1470 1464 1464 1458 1452 1452 1452 1452 1452 1446 1446 1446 1440 1434 1428 1428 1422 1422 1416 1416 1410 1410 1404 1404 1404 1399 1399 1393 1393 1388 1382 1382 1382 1376 1376 1376 1376 1371 1371 1366 1366 1360 1360 1355 1355 1355 1350 1344 1344 1339 1339 1339 1339 1334 1334 1334 1329 1324 1324 1319 1319 1314 1314 1309 1309 1304 1299 1299 1299 1299 1294 1294 1294 1294 1289 1284 1280 1280 1275 1275 1275 1275 1275 1270 1265 1261 1261 1256 1256 1256 1256 1252 1252 1247 1243 1243 1243 1243 1243 1238 1238 1234 1229 1225 1221 1221 1221 1216 1212 1208 1208 1208 1208 1204 1204 1204 1200 1200 1195 1195 1191 1187 1187 1183 1179 1175 1175 1175 1175 1175 1171 1171 1171 1171 0 0 0 0 0 0 0 0 0 0 0 0 0 0 0 0 0 0 0 0 0 0 0 0 0 0 0 0 0 0 0 0 0 0 0 0 0 0 0 0 0
    0 0 0 0 0 0 0 0 0 0 0 0 0 0 0 0 0 0 0 0 0 0 0 0 0 0 0 0 0 0 0 0 0 993 995 995 998 1001 1004 1001 1007 1010 1010 1010 1010 1010 1010 1010 1010 1013 1019 1019 1022 1025 1025 1025 1028 1028 1028 1028 1028 1031 1034 1034 1034 1037 1037 1040 1044 1047 1047 1047 1047 1050 1050 1050 1053 1056 1056 1060 1060 1060 1063 1063 1063 1066 1066 1066 1069 1069 1069 1069 1073 1073 1076 1076 1079 1079 1079 1083 1083 1086 1086 1086 1090 1090 1093 1093 1093 1097 1100 1097 1100 1100 1104 1104 1107 1111 1114 1114 1114 1114 1118 1118 1122 1122 1125 1129 1129 1129 1129 1133 1136 1136 1140 1140 1144 1144 1148 1151 1151 1155 1155 1157 1157 1157 1159 1159 1163 1163 1167 1171 1171 1175 1175 1179 1179 1179 1175 1175 1175 1179 1179 1179 1183 1187 1191 1195 1200 1200 1204 1204 1208 1208 1208 1212 1212 1212 1216 1216 1216 1221 1221 1225 1229 1234 1234 1238 1238 1238 1243 1243 1243 1247 1247 1252 1256 1256 1261 1261 1261 1265 1265 1267 1270 1270 1275 1275 1280 1280 1280 1284 1284 1284 1289 1294 1294 1299 1299 1299 1299 1304 1304 1304 1309 1314 1314 1314 1319 1324 1324 1324 1329 1329 1334 1334 1334 1339 1339 1339 1344 1344 1350 1355 1355 1355 1360 1360 1360 1366 1366 1371 1376 1376 1376 1376 1382 1382 1388 1388 1393 1393 1399 1399 1404 1404 1404 1410 1416 1416 1422 1422 1422 1422 1422 1422 1422 1428 1428 1428 1434 1434 1440 1440 1446 1446 1446 1446 1452 1509 1509 1509 1509 1502 1502 1496 1496 1489 1489 1483 1483 1477 1477 1477 1470 1470 1464 1458 1458 1452 1452 1452 1452 1446 1446 1446 1440 1434 1434 1434 1428 1422 1422 1422 1416 1410 1410 1404 1404 1404 1399 1399 1393 1393 1388 1388 1382 1382 1376 1376 1376 1371 1371 1371 1366 1366 1360 1360 1360 1355 1355 1350 1350 1344 1339 1339 1339 1339 1334 1334 1329 1329 1324 1324 1319 1319 1314 1314 1309 1304 1304 1299 1299 1299 1299 1294 1294 1294 1289 1289 1280 1280 1275 1275 1275 1275 1275 1275 1270 1265 1261 1261 1256 1256 1256 1256 1256 1252 1247 1243 1243 1243 1243 1238 1238 1234 1229 1229 1225 1221 1221 1216 1212 1212 1208 1208 1208 1208 1204 1204 1200 1200 1200 1195 1195 1191 1187 1187 1183 1179 1175 1175 1175 1175 1175 1175 1171 1171 1171 0 0 0 0 0 0 0 0 0 0 0 0 0 0 0 0 0 0 0 0 0 0 0 0 0 0 0 0 0 0 0 0 0 0 0 0 0 0 0 0 0
    0 0 0 0 0 0 0 0 0 0 0 0 0 0 0 0 0 0 0 0 0 990 990 0 0 0 0 0 995 993 993 993 993 993 993 995 995 998 1001 1001 1004 1007 1007 1010 1010 1010 1010 1010 1013 1016 1019 1019 1022 1022 1025 1025 1025 1028 1028 1028 1028 1031 1034 1034 1034 1037 1037 1040 1040 1044 1047 1047 1047 1050 1050 1050 1053 1056 1056 1060 1060 1060 1060 1063 1063 1066 1066 1066 1069 1069 1069 1073 1073 1076 1076 1079 1079 1079 1083 1083 1083 1086 1086 1086 1090 1090 1093 1093 1093 1097 1100 1100 1100 1104 1104 1107 1107 1111 1111 1114 1114 1114 1118 1118 1122 1125 1125 1129 1133 1133 1133 1136 1140 1140 1140 1144 1144 1144 1151 1155 1155 1157 1157 1159 1159 1159 1159 1163 1163 1167 1171 1175 1175 1179 1179 1179 1183 1183 1183 1187 1183 1187 1191 1195 1200 1204 1204 1204 1208 1208 1208 1212 1212 1212 1216 1221 1221 1221 1225 1225 1225 1229 1234 1238 1238 1243 1243 1243 1247 1247 1247 1247 1252 1252 1256 1256 1261 1261 1265 1265 1265 1265 1267 1270 1270 1275 1275 1275 1280 1280 1280 1280 1280 1284 1289 1289 1294 1299 1299 1299 1299 1304 1304 1309 1314 1314 1314 1319 1319 1324 1324 1324 1329 1334 1334 1334 1334 1339 1339 1339 1344 1344 1350 1350 1355 1355 1355 1360 1360 1360 1366 1371 1371 1376 1376 1376 1382 1382 1388 1388 1393 1393 1399 1399 1404 1404 1404 1404 1410 1416 1422 1422 1422 1422 1422 1422 1422 1428 1428 1428 1434 1440 1440 1440 1446 1446 1446 1446 1452 1502 1502 1509 1509 1502 1502 1496 1496 1489 1489 1483 1483 1477 1477 1477 1470 1470 1464 1464 1458 1458 1452 1452 1452 1446 1446 1446 1440 1434 1434 1428 1428 1422 1422 1416 1416 1410 1410 1404 1404 1404 1399 1399 1393 1393 1388 1388 1382 1382 1376 1376 1376 1371 1371 1371 1366 1360 1360 1360 1360 1355 1355 1355 1350 1344 1344 1339 1339 1339 1334 1334 1329 1329 1324 1324 1319 1319 1314 1314 1309 1309 1304 1299 1299 1299 1299 1294 1294 1294 1294 1289 1284 1280 1275 1275 1275 1275 1275 1275 1270 1267 1265 1265 1261 1261 1261 1261 1261 1256 1252 1252 1247 1247 1247 1247 1247 1243 1238 1238 1234 1225 1221 1216 1212 1212 1212 1212 1212 1212 1208 1208 1204 1204 1204 1200 1195 1191 1191 1187 1183 1183 1179 1179 1179 1179 1179 1179 1179 1175 1175 0 0 0 0 0 0 0 0 0 0 0 0 0 0 0 0 0 0 0 0 0 0 0 0 0 0 0 0 0 0 0 0 0 0 0 0 0 0 0 0 0
    0 0 0 0 0 0 0 0 0 0 0 0 976 0 0 976 978 0 0 987 987 987 990 990 990 990 995 995 995 990 993 993 995 993 995 995 1001 1001 1001 1004 1004 1007 1007 1010 1010 1010 1013 1013 1013 1013 1016 1019 1019 1022 1022 1025 1025 1025 1025 1028 1028 1031 1034 1034 1034 1037 1037 1040 1044 1044 1047 1047 1047 1050 1050 1050 1053 1056 1056 1060 1060 1060 1060 1063 1063 1063 1066 1066 1069 1073 1073 1073 1073 1076 1076 1079 1079 1079 1083 1083 1083 1086 1086 1086 1090 1090 1090 1093 1093 1097 1100 1100 1100 1104 1104 1107 1107 1107 1111 1111 1114 1114 1118 1122 1122 1125 1129 1129 1133 1133 1133 1140 1144 1144 1144 1144 1148 1148 1151 1155 1155 1159 1159 1159 1159 1159 1163 1163 1167 1171 1175 1175 1175 1179 1179 1179 1183 1183 1191 1191 1195 1195 1195 1200 1204 1204 1208 1208 1208 1212 1212 1212 1216 1216 1216 1221 1221 1221 1225 1225 1229 1229 1234 1238 1238 1243 1243 1243 1247 1247 1247 1247 1247 1252 1256 1256 1261 1261 1265 1265 1265 1265 1270 1270 1275 1275 1275 1280 1284 1284 1284 1284 1289 1289 1294 1299 1299 1304 1304 1304 1309 1309 1314 1319 1319 1319 1324 1319 1324 1324 1329 1329 1329 1334 1339 1339 1339 1344 1344 1344 1350 1355 1355 1355 1360 1360 1360 1366 1366 1366 1376 1376 1382 1382 1382 1382 1388 1388 1393 1393 1396 1398 1399 1399 1404 1404 1404 1404 1410 1410 1416 1416 1422 1422 1422 1422 1422 1428 1428 1428 1434 1440 1440 1446 1446 1446 1452 1452 1452 1496 1502 1502 1502 1502 1502 1502 1496 1489 1489 1483 1483 1477 1477 1477 1477 1470 1470 1464 1458 1458 1452 1452 1452 1452 1446 1446 1440 1434 1434 1428 1428 1422 1422 1422 1416 1410 1410 1404 1404 1404 1399 1399 1396 1396 1393 1393 1388 1388 1388 1382 1382 1376 1376 1371 1371 1366 1366 1366 1360 1360 1360 1355 1355 1350 1344 1344 1344 1339 1339 1339 1334 1334 1329 1324 1324 1324 1319 1319 1314 1314 1309 1304 1304 1304 1304 1299 1299 1299 1294 1294 1284 1280 1280 1280 1280 1280 1280 1275 1275 1270 1265 1265 1265 1261 1261 1261 1261 1256 1252 1247 1247 1247 1247 1247 1243 1243 1238 1238 1234 1225 1221 1216 1216 1212 1212 1212 1212 1212 1208 1208 1208 1204 1200 1200 1195 1191 1191 1187 1183 1183 1179 1179 1179 1179 1179 1179 1175 1175 1175 0 0 0 0 0 0 0 0 0 0 0 0 0 0 0 0 0 0 0 0 0 0 0 0 0 0 0 0 0 0 0 0 0 0 0 0 0 0 0 0 0
    957 962 962 965 0 968 968 970 0 973 973 973 976 976 976 976 978 978 981 984 987 987 987 990 990 990 993 993 993 990 993 993 995 993 995 998 1001 1001 1001 1001 1004 1007 1007 1010 1010 1010 1010 1010 1010 1013 1013 1016 1016 1019 1022 1022 1025 1025 1025 1028 1028 1031 1031 1034 1034 1034 1037 1037 1040 1044 1044 1047 1047 1050 1050 1050 1053 1053 1053 1056 1060 1060 1060 1063 1063 1066 1066 1067 1069 1073 1073 1073 1073 1073 1076 1076 1079 1079 1083 1083 1083 1086 1086 1090 1090 1090 1093 1093 1097 1100 1100 1100 1104 1104 1107 1107 1107 1111 1111 1114 1114 1114 1118 1122 1122 1125 1129 1133 1133 1133 1136 1144 1144 1144 1148 1148 1148 1151 1155 1157 1157 1159 1159 1163 1163 1163 1167 1167 1171 1171 1175 1175 1179 1179 1183 1183 1187 1191 1195 1195 1195 1200 1200 1200 1204 1204 1208 1208 1208 1208 1212 1212 1216 1216 1216 1221 1221 1221 1225 1225 1229 1229 1234 1234 1238 1243 1243 1243 1243 1247 1247 1247 1247 1252 1252 1256 1261 1261 1265 1265 1265 1265 1270 1270 1270 1275 1280 1280 1284 1284 1284 1284 1289 1289 1294 1299 1299 1304 1304 1304 1309 1309 1314 1319 1319 1319 1319 1319 1324 1329 1329 1329 1334 1334 1339 1339 1339 1339 1344 1350 1350 1355 1360 1360 1360 1360 1366 1366 1366 1371 1376 1376 1382 1382 1382 1382 1388 1388 1393 1393 1399 1404 1404 1404 1410 1410 1410 1416 1416 1422 1422 1422 1428 1428 1428 1428 1428 1428 1434 1434 1440 1446 1446 1446 1452 1452 1452 1458 1458 1509 1509 1515 1515 1515 1509 1509 1502 1502 1496 1489 1483 1483 1483 1483 1483 1477 1477 1470 1470 1464 1458 1458 1458 1458 1452 1452 1446 1440 1440 1434 1434 1428 1428 1428 1422 1422 1416 1410 1410 1410 1404 1404 1399 1399 1393 1393 1388 1388 1388 1382 1382 1382 1376 1376 1366 1366 1366 1366 1360 1360 1355 1355 1350 1350 1344 1344 1344 1339 1339 1339 1334 1329 1329 1324 1324 1324 1319 1319 1319 1314 1309 1309 1304 1304 1304 1304 1299 1299 1299 1294 1289 1284 1280 1280 1280 1280 1280 1280 1275 1270 1265 1265 1265 1261 1261 1261 1256 1252 1252 1247 1247 1247 1247 1243 1243 1243 1238 1238 1234 1225 1221 1216 1216 1216 1212 1212 1212 1212 1208 1208 1204 1204 1200 1195 1195 1191 1191 1187 1183 1183 1179 1179 1179 1179 1179 1179 1175 1175 1175 0 0 0 0 0 0 0 0 0 0 0 0 0 0 0 0 0 0 0 0 0 0 0 0 0 0 0 0 0 0 0 0 0 0 0 0 0 0 0 0 0
    959 962 965 965 965 968 968 970 970 970 970 973 973 976 973 976 976 978 978 984 987 987 987 987 990 990 990 990 990 990 993 993 995 995 998 998 1001 1001 1001 1001 1004 1004 1007 1007 1007 1010 1010 1013 1013 1013 1016 1016 1019 1019 1022 1022 1025 1025 1025 1028 1028 1031 1031 1034 1034 1037 1037 1037 1040 1044 1047 1047 1047 1047 1050 1050 1050 1053 1053 1056 1060 1060 1063 1063 1066 1066 1067 1069 1073 1073 1073 1073 1073 1076 1076 1079 1079 1079 1083 1086 1086 1086 1090 1090 1093 1093 1093 1097 1100 1100 1104 1104 1104 1107 1107 1107 1107 1111 1111 1111 1114 1114 1118 1122 1125 1125 1129 1133 1133 1136 1140 1148 1148 1148 1148 1151 1151 1155 1157 1159 1159 1163 1163 1163 1167 1167 1171 1171 1175 1175 1175 1179 1179 1179 1183 1183 1187 1191 1195 1195 1195 1200 1200 1200 1204 1204 1204 1208 1208 1208 1212 1212 1216 1216 1216 1221 1221 1221 1225 1225 1229 1229 1234 1238 1238 1243 1243 1243 1243 1247 1247 1247 1247 1252 1252 1256 1261 1261 1265 1265 1265 1265 1270 1270 1270 1275 1275 1280 1280 1284 1284 1289 1289 1294 1294 1299 1299 1304 1304 1304 1309 1314 1314 1319 1319 1319 1324 1324 1324 1329 1329 1334 1334 1334 1339 1339 1339 1344 1344 1350 1350 1355 1360 1360 1360 1360 1360 1366 1366 1371 1376 1376 1382 1382 1382 1382 1388 1388 1393 1393 1399 1404 1404 1404 1410 1410 1410 1410 1416 1422 1422 1422 1428 1428 1428 1428 1428 1428 1434 1434 1440 1446 1446 1446 1452 1452 1452 1458 1458 1502 1509 1509 1509 1509 1509 1509 1502 1502 1496 1483 1483 1483 1483 1483 1483 1477 1477 1470 1470 1464 1458 1458 1458 1452 1452 1452 1446 1440 1440 1434 1434 1428 1428 1428 1422 1422 1416 1416 1410 1410 1404 1404 1404 1393 1393 1388 1388 1388 1382 1382 1376 1376 1371 1371 1366 1366 1366 1366 1360 1360 1355 1355 1350 1350 1344 1344 1344 1339 1339 1339 1334 1329 1329 1324 1324 1319 1319 1319 1314 1309 1309 1304 1304 1304 1304 1304 1299 1299 1294 1294 1289 1284 1280 1280 1280 1280 1280 1280 1275 1270 1265 1265 1261 1261 1261 1256 1256 1252 1252 1247 1247 1247 1247 1243 1247 1243 1238 1234 1234 1225 1221 1216 1216 1212 1212 1212 1212 1212 1208 1204 1204 1200 1200 1195 1191 1191 1187 1187 1183 1183 1179 1179 1179 1179 1179 1179 1175 1175 1175 0 0 0 0 0 0 0 0 0 0 0 0 0 0 0 0 0 0 0 0 0 0 0 0 0 0 0 0 0 0 0 0 0 0 0 0 0 0 0 0 0
    959 962 965 965 965 968 968 968 968 968 970 970 973 973 970 973 976 976 978 981 984 984 987 987 987 990 990 990 990 990 990 993 995 995 998 998 1001 1001 1001 1001 1001 1004 1007 1007 1007 1010 1010 1010 1013 1013 1013 1016 1016 1019 1022 1022 1025 1025 1025 1028 1028 1031 1031 1034 1034 1034 1037 1037 1040 1044 1044 1047 1047 1047 1050 1050 1050 1050 1053 1053 1060 1060 1063 1063 1066 1066 1069 1069 1073 1073 1076 1076 1076 1076 1079 1083 1086 1086 1090 1090 1090 1093 1093 1097 1097 1100 1100 1100 1100 1104 1107 1107 1107 1107 1111 1107 1107 1111 1111 1111 1114 1114 1118 1122 1122 1125 1129 1133 1133 1136 1144 1148 1148 1151 1151 1151 1155 1155 1159 1159 1163 1163 1167 1167 1167 1171 1171 1171 1175 1175 1179 1179 1179 1183 1183 1187 1191 1191 1195 1195 1195 1200 1200 1200 1204 1204 1208 1208 1208 1212 1212 1212 1216 1216 1216 1221 1221 1225 1225 1225 1229 1229 1234 1238 1238 1243 1243 1243 1243 1243 1243 1247 1247 1252 1252 1256 1256 1261 1265 1265 1265 1265 1270 1270 1270 1275 1275 1280 1284 1284 1284 1289 1289 1294 1294 1299 1299 1304 1304 1309 1309 1314 1319 1319 1319 1319 1324 1324 1324 1329 1329 1334 1334 1339 1339 1339 1339 1344 1344 1350 1350 1355 1360 1360 1360 1360 1360 1366 1366 1371 1376 1376 1382 1382 1382 1382 1388 1388 1393 1393 1399 1404 1404 1404 1410 1410 1410 1416 1416 1422 1422 1428 1428 1428 1428 1428 1428 1434 1434 1434 1440 1446 1446 1446 1452 1452 1452 1458 1458 1509 1515 1515 1509 1509 1509 1509 1502 1496 1489 1483 1483 1483 1483 1483 1483 1483 1477 1470 1470 1464 1458 1458 1458 1452 1452 1452 1446 1446 1440 1440 1434 1428 1428 1428 1422 1422 1416 1410 1410 1410 1404 1404 1399 1393 1393 1393 1388 1388 1382 1382 1376 1376 1371 1371 1366 1366 1366 1366 1366 1360 1355 1355 1350 1350 1344 1344 1339 1339 1339 1334 1334 1329 1329 1324 1324 1319 1319 1319 1314 1309 1309 1304 1304 1304 1304 1304 1299 1299 1294 1294 1289 1284 1280 1280 1280 1280 1280 1280 1275 1270 1265 1265 1261 1261 1261 1256 1252 1252 1252 1247 1247 1247 1247 1243 1243 1243 1238 1238 1234 1225 1221 1221 1216 1216 1212 1212 1212 1212 1208 1208 1204 1200 1200 1195 1191 1191 1187 1187 1183 1183 1179 1179 1179 1179 1179 1179 1175 1175 1175 0 0 0 0 0 0 0 0 0 0 0 0 0 0 0 0 0 0 0 0 0 0 0 0 0 0 0 0 0 0 0 0 0 0 0 0 0 0 0 0 0
    959 962 965 965 965 965 968 968 968 968 968 970 970 973 970 973 976 976 978 978 984 984 984 987 987 987 990 990 990 990 990 990 993 995 995 998 1001 1001 1001 1001 1001 1004 1004 1007 1007 1007 1010 1010 1013 1013 1013 1016 1016 1019 1019 1022 1022 1025 1025 1028 1028 1034 1034 1034 1034 1037 1037 1040 1040 1044 1044 1047 1047 1047 1050 1050 1050 1050 1053 1056 1060 1063 1063 1066 1066 1067 1069 1073 1073 1073 1076 1076 1076 1079 1083 1086 1090 1090 1090 1093 1093 1097 1097 1100 1100 1104 1104 1104 1107 1111 1111 1111 1111 1111 1111 1111 1107 1111 1111 1111 1114 1114 1118 1122 1122 1125 1129 1133 1136 1140 1148 1151 1151 1151 1155 1155 1155 1155 1159 1159 1163 1163 1163 1167 1167 1171 1171 1171 1175 1179 1179 1179 1183 1183 1187 1187 1191 1191 1195 1195 1195 1200 1200 1200 1204 1204 1204 1208 1208 1212 1212 1212 1216 1216 1221 1221 1221 1225 1225 1229 1229 1229 1234 1238 1238 1243 1243 1243 1243 1243 1243 1247 1247 1247 1252 1256 1256 1261 1265 1265 1265 1265 1270 1270 1270 1275 1275 1280 1284 1284 1284 1289 1289 1294 1294 1299 1299 1304 1304 1304 1309 1314 1314 1319 1319 1319 1319 1324 1324 1324 1329 1329 1334 1334 1339 1339 1339 1344 1344 1350 1355 1355 1360 1360 1360 1360 1360 1366 1366 1371 1376 1382 1382 1382 1382 1382 1388 1388 1393 1393 1399 1399 1404 1404 1410 1410 1410 1416 1422 1428 1428 1428 1428 1428 1428 1428 1434 1434 1434 1434 1440 1446 1446 1446 1452 1452 1452 1458 1458 1502 1509 1509 1509 1509 1509 1509 1502 1496 1489 1483 1483 1483 1483 1483 1483 1483 1477 1477 1470 1464 1458 1458 1458 1452 1452 1452 1446 1446 1440 1440 1434 1434 1428 1428 1422 1416 1416 1410 1410 1410 1404 1404 1399 1393 1393 1393 1388 1388 1388 1382 1376 1371 1371 1371 1366 1366 1366 1360 1360 1360 1355 1355 1350 1350 1344 1344 1344 1339 1339 1334 1329 1329 1324 1324 1324 1319 1319 1319 1314 1314 1309 1309 1304 1304 1304 1304 1299 1299 1294 1294 1289 1284 1284 1280 1280 1280 1280 1280 1275 1270 1265 1265 1265 1261 1261 1256 1252 1252 1252 1247 1247 1247 1247 1243 1243 1243 1238 1238 1234 1225 1221 1216 1216 1216 1212 1212 1212 1212 1208 1204 1204 1200 1195 1195 1191 1191 1191 1187 1183 1183 1183 1179 1179 1179 1179 1175 1175 1175 1175 0 0 0 0 0 0 0 0 0 0 0 0 0 0 0 0 0 0 0 0 0 0 0 0 0 0 0 0 0 0 0 0 0 0 0 0 0 0 0 0 0
    959 962 962 965 965 965 965 968 968 968 968 970 970 970 970 973 973 976 976 978 981 981 984 987 987 990 990 990 990 990 990 991 993 993 995 998 1001 1001 1001 1001 1001 1004 1004 1004 1007 1007 1010 1010 1013 1013 1013 1016 1016 1019 1019 1022 1022 1025 1028 1028 1031 1034 1034 1037 1037 1037 1037 1040 1040 1044 1044 1047 1047 1050 1050 1050 1053 1053 1053 1056 1060 1063 1066 1066 1067 1069 1069 1073 1073 1076 1076 1079 1079 1083 1086 1090 1090 1093 1093 1097 1097 1100 1100 1104 1104 1107 1107 1107 1111 1111 1114 1114 1111 1111 1111 1111 1111 1111 1111 1111 1114 1118 1118 1122 1122 1125 1125 1133 1136 1136 1148 1148 1151 1151 1155 1155 1155 1159 1159 1159 1163 1163 1163 1167 1167 1171 1175 1175 1175 1179 1179 1179 1179 1183 1183 1187 1191 1191 1195 1195 1195 1200 1200 1200 1200 1204 1204 1208 1208 1208 1212 1212 1216 1216 1221 1221 1225 1225 1225 1229 1229 1229 1234 1238 1238 1238 1243 1243 1243 1243 1243 1243 1247 1247 1252 1256 1256 1261 1261 1265 1265 1265 1270 1270 1275 1275 1280 1280 1284 1284 1284 1289 1289 1294 1294 1299 1299 1304 1304 1304 1309 1309 1314 1314 1319 1319 1319 1324 1324 1329 1329 1334 1334 1339 1339 1339 1339 1339 1344 1350 1350 1355 1360 1360 1360 1360 1360 1366 1366 1371 1376 1376 1382 1382 1382 1382 1382 1388 1393 1393 1399 1399 1404 1404 1410 1410 1410 1416 1428 1428 1428 1428 1434 1428 1428 1428 1434 1434 1434 1434 1440 1440 1446 1446 1452 1452 1452 1458 1458 1509 1509 1509 1509 1509 1509 1509 1502 1496 1489 1483 1483 1483 1483 1483 1483 1483 1477 1477 1470 1470 1458 1458 1458 1452 1452 1452 1446 1446 1440 1440 1440 1434 1428 1428 1422 1416 1416 1410 1410 1404 1404 1404 1399 1393 1393 1393 1388 1388 1388 1382 1376 1376 1371 1371 1366 1366 1360 1360 1360 1360 1355 1355 1350 1350 1344 1344 1344 1344 1339 1334 1329 1329 1329 1324 1324 1324 1319 1319 1314 1314 1309 1304 1304 1304 1304 1299 1299 1294 1294 1294 1289 1284 1284 1284 1280 1280 1280 1280 1275 1270 1265 1265 1265 1261 1261 1256 1252 1252 1252 1247 1247 1247 1247 1243 1243 1243 1238 1238 1234 1225 1221 1221 1216 1216 1212 1212 1212 1208 1208 1204 1204 1200 1195 1191 1191 1187 1187 1187 1183 1183 1183 1179 1179 1179 1179 1175 1175 1175 1175 0 0 0 0 0 0 0 0 0 0 0 0 0 0 0 0 0 0 0 0 0 0 0 0 0 0 0 0 0 0 0 0 0 0 0 0 0 0 0 0 0
    959 962 962 962 962 965 965 965 965 968 968 970 970 970 970 973 973 976 976 978 981 981 984 987 987 990 990 990 990 990 990 993 993 995 998 998 1001 1001 1001 1001 1004 1004 1007 1007 1007 1010 1013 1013 1013 1013 1013 1016 1016 1016 1019 1022 1025 1025 1028 1028 1031 1034 1037 1037 1040 1040 1040 1044 1044 1047 1047 1050 1050 1050 1053 1053 1053 1056 1056 1060 1063 1063 1066 1069 1069 1073 1073 1076 1076 1079 1079 1083 1083 1086 1086 1090 1093 1093 1097 1097 1100 1100 1104 1104 1107 1107 1111 1107 1111 1114 1114 1114 1114 1111 1114 1111 1111 1111 1111 1114 1114 1114 1118 1118 1122 1122 1122 1129 1133 1136 1148 1151 1151 1151 1155 1155 1155 1155 1159 1159 1163 1163 1167 1167 1167 1171 1171 1175 1175 1179 1179 1179 1183 1183 1183 1187 1191 1191 1195 1195 1195 1195 1200 1200 1204 1204 1204 1208 1208 1208 1212 1212 1216 1216 1221 1225 1225 1225 1229 1229 1229 1234 1234 1238 1238 1238 1243 1243 1243 1243 1243 1247 1247 1252 1252 1256 1256 1261 1265 1265 1265 1265 1270 1270 1270 1275 1280 1280 1284 1284 1289 1289 1289 1294 1299 1299 1299 1304 1304 1304 1304 1309 1314 1314 1319 1319 1319 1324 1329 1329 1334 1334 1334 1339 1339 1339 1339 1339 1344 1344 1350 1355 1360 1360 1360 1360 1366 1366 1366 1371 1376 1376 1382 1382 1382 1382 1382 1382 1388 1393 1399 1404 1404 1404 1410 1410 1416 1428 1434 1434 1434 1434 1434 1434 1434 1434 1434 1434 1434 1434 1440 1440 1446 1446 1452 1452 1458 1458 1477 1502 1515 1515 1515 1509 1509 1509 1502 1502 1496 1483 1483 1483 1483 1483 1483 1483 1477 1477 1470 1464 1458 1458 1458 1452 1452 1452 1446 1446 1440 1440 1434 1434 1428 1428 1422 1416 1416 1410 1410 1410 1404 1404 1399 1393 1393 1393 1388 1388 1388 1382 1376 1371 1371 1371 1366 1366 1360 1360 1360 1355 1355 1355 1350 1350 1344 1344 1344 1339 1339 1334 1329 1329 1324 1324 1324 1319 1319 1319 1314 1314 1309 1304 1304 1304 1304 1299 1299 1294 1294 1294 1289 1284 1284 1284 1284 1280 1280 1275 1270 1270 1265 1265 1265 1261 1261 1256 1252 1252 1247 1247 1247 1247 1243 1243 1243 1238 1238 1234 1229 1229 1225 1225 1221 1216 1212 1212 1212 1208 1208 1208 1204 1204 1195 1195 1191 1191 1191 1187 1183 1183 1183 1183 1183 1179 1179 1175 1175 1175 1175 0 0 0 0 0 0 0 0 0 0 0 0 0 0 0 0 0 0 0 0 0 0 0 0 0 0 0 0 0 0 0 0 0 0 0 0 0 0 0 0 0
    959 959 959 959 962 962 965 965 965 968 968 970 970 973 973 973 976 976 978 978 981 981 984 987 987 987 990 990 990 990 990 993 995 995 998 998 1001 1001 1001 1004 1004 1007 1007 1010 1010 1013 1013 1013 1013 1016 1016 1016 1016 1019 1022 1025 1028 1028 1031 1034 1037 1037 1044 1044 1044 1047 1047 1047 1050 1050 1050 1053 1053 1053 1053 1053 1056 1060 1063 1066 1066 1066 1069 1069 1073 1073 1076 1076 1076 1079 1083 1083 1086 1086 1090 1090 1093 1097 1097 1097 1100 1100 1104 1104 1107 1107 1111 1111 1114 1114 1114 1114 1114 1111 1114 1111 1111 1111 1111 1114 1114 1114 1118 1118 1118 1122 1122 1129 1133 1133 1148 1151 1151 1151 1151 1151 1155 1155 1159 1159 1163 1163 1167 1167 1171 1171 1175 1175 1175 1179 1179 1179 1179 1183 1183 1187 1187 1191 1191 1195 1195 1195 1195 1200 1200 1204 1204 1208 1208 1208 1212 1212 1212 1216 1221 1225 1225 1225 1229 1229 1234 1234 1238 1238 1238 1238 1243 1243 1243 1243 1247 1247 1247 1252 1252 1256 1256 1261 1265 1265 1265 1265 1270 1270 1270 1275 1280 1280 1284 1284 1289 1289 1294 1294 1299 1299 1299 1304 1304 1304 1304 1309 1309 1314 1319 1319 1319 1319 1329 1329 1329 1334 1334 1339 1339 1339 1339 1339 1344 1344 1355 1355 1360 1360 1360 1360 1366 1366 1366 1371 1371 1376 1376 1376 1382 1382 1467 1464 1463 1393 1399 1404 1404 1410 1410 1416 1428 1440 1446 1440 1440 1440 1440 1434 1434 1434 1434 1434 1434 1434 1434 1440 1440 1446 1452 1452 1452 1458 1458 1502 1509 1509 1509 1509 1509 1509 1509 1502 1496 1483 1483 1483 1483 1483 1483 1483 1477 1477 1470 1464 1458 1458 1452 1452 1452 1452 1446 1446 1440 1440 1434 1434 1428 1428 1422 1416 1416 1410 1410 1410 1404 1404 1399 1393 1393 1393 1388 1388 1388 1376 1376 1371 1371 1371 1366 1366 1360 1360 1360 1360 1355 1355 1350 1350 1344 1344 1344 1344 1339 1339 1334 1329 1329 1324 1324 1319 1319 1319 1309 1309 1309 1304 1304 1304 1304 1299 1299 1294 1294 1294 1289 1284 1284 1284 1284 1280 1280 1275 1270 1265 1265 1265 1265 1261 1261 1256 1256 1252 1247 1247 1247 1247 1243 1243 1243 1243 1238 1238 1234 1229 1225 1225 1221 1216 1216 1212 1212 1212 1208 1208 1204 1200 1200 1195 1191 1191 1187 1187 1183 1183 1183 1183 1183 1179 1179 1175 1175 1175 1175 0 0 0 0 0 0 0 0 0 0 0 0 0 0 0 0 0 0 0 0 0 0 0 0 0 0 0 0 0 0 0 0 0 0 0 0 0 0 0 0 0
    959 962 962 962 962 962 965 965 965 968 968 970 970 973 973 976 976 978 978 978 981 981 984 987 987 990 990 990 991 991 991 993 995 998 998 998 1001 1004 1004 1007 1010 1010 1013 1013 1013 1016 1016 1019 1019 1022 1022 1025 1025 1025 1025 1025 1031 1031 1034 1034 1037 1040 1044 1044 1044 1047 1047 1047 1050 1050 1053 1053 1056 1056 1056 1060 1060 1063 1063 1067 1069 1073 1073 1073 1076 1076 1076 1079 1079 1083 1086 1086 1090 1090 1090 1093 1093 1097 1097 1100 1100 1100 1104 1104 1107 1107 1111 1111 1111 1114 1114 1114 1111 1111 1111 1107 1107 1107 1107 1111 1114 1114 1114 1114 1118 1118 1118 1125 1129 1129 1144 1148 1148 1151 1151 1151 1155 1155 1159 1159 1163 1163 1163 1167 1167 1171 1175 1175 1175 1179 1179 1179 1183 1183 1183 1187 1187 1191 1191 1195 1195 1195 1195 1200 1200 1204 1204 1204 1208 1208 1212 1212 1212 1216 1221 1225 1225 1225 1229 1229 1234 1234 1238 1238 1238 1238 1243 1243 1243 1243 1247 1247 1247 1252 1252 1256 1256 1261 1265 1265 1265 1265 1270 1270 1275 1275 1280 1280 1284 1284 1289 1289 1294 1294 1299 1299 1299 1304 1304 1304 1304 1309 1309 1314 1314 1319 1319 1319 1324 1329 1329 1334 1334 1339 1339 1339 1339 1339 1344 1344 1355 1360 1360 1360 1360 1360 1366 1366 1366 1366 1462 1465 1465 1463 1467 1467 1552 1547 1539 1467 1499 1498 1498 1497 1410 1416 1446 1446 1446 1446 1446 1446 1440 1434 1434 1434 1434 1434 1434 1434 1434 1434 1440 1446 1446 1452 1452 1458 1458 1509 1509 1509 1509 1509 1509 1509 1509 1502 1502 1489 1489 1483 1483 1483 1483 1483 1477 1477 1470 1464 1458 1458 1452 1452 1452 1446 1446 1440 1440 1440 1434 1434 1428 1428 1422 1416 1416 1410 1410 1410 1404 1404 1399 1393 1393 1393 1388 1388 1388 1382 1376 1376 1376 1376 1366 1366 1366 1360 1360 1360 1355 1355 1355 1350 1344 1344 1344 1339 1339 1334 1329 1329 1329 1324 1324 1319 1319 1314 1309 1309 1304 1304 1304 1304 1299 1299 1299 1294 1289 1289 1284 1284 1284 1284 1280 1280 1280 1275 1270 1267 1265 1265 1265 1261 1256 1256 1256 1252 1247 1247 1247 1247 1243 1243 1243 1238 1238 1234 1229 1229 1225 1225 1221 1216 1212 1212 1212 1208 1208 1208 1204 1200 1200 1195 1191 1191 1187 1187 1183 1183 1183 1179 1179 1179 1175 1175 1175 1175 1163 0 0 0 0 0 0 0 0 0 0 0 0 0 0 0 0 0 0 0 0 0 0 0 0 0 0 0 0 0 0 0 0 0 0 0 0 0 0 0 0 0
    959 962 962 962 962 962 965 965 965 968 968 970 970 973 976 976 978 981 981 981 984 984 987 990 990 991 991 991 993 993 993 993 995 998 998 1001 1001 1004 1007 1010 1010 1010 1013 1013 1013 1016 1016 1016 1019 1022 1022 1025 1025 1028 1028 1028 1031 1034 1034 1037 1037 1040 1044 1044 1047 1047 1047 1050 1050 1050 1053 1056 1056 1060 1060 1060 1063 1063 1066 1069 1073 1073 1073 1076 1076 1076 1079 1079 1079 1083 1083 1086 1086 1090 1090 1093 1093 1097 1097 1097 1100 1100 1100 1104 1104 1107 1111 1111 1111 1114 1114 1114 1111 1111 1111 1107 1107 1107 1107 1111 1114 1114 1114 1114 1118 1118 1118 1122 1129 1129 1148 1148 1148 1151 1151 1151 1155 1155 1155 1159 1163 1163 1163 1163 1167 1171 1171 1175 1175 1179 1179 1179 1179 1183 1183 1187 1187 1187 1191 1195 1195 1195 1195 1200 1200 1204 1204 1204 1208 1208 1208 1212 1212 1216 1221 1221 1225 1229 1229 1229 1234 1234 1238 1238 1238 1243 1243 1243 1243 1247 1247 1247 1252 1252 1256 1256 1261 1261 1265 1265 1265 1265 1270 1270 1275 1275 1280 1280 1284 1284 1289 1289 1294 1294 1299 1299 1299 1304 1304 1304 1304 1309 1309 1314 1314 1319 1319 1319 1324 1324 1329 1329 1334 1334 1334 1339 1339 1339 1344 1344 1355 1360 1355 1360 1360 1360 1360 1366 1366 1366 1553 1555 1555 1550 1552 1552 1638 1630 1615 1541 1600 1592 1592 1585 1410 1458 1458 1452 1452 1452 1446 1446 1440 1440 1440 1434 1434 1434 1434 1434 1434 1434 1440 1440 1446 1452 1452 1458 1483 1509 1515 1515 1515 1509 1509 1509 1509 1509 1502 1489 1489 1483 1483 1483 1483 1483 1477 1477 1470 1464 1458 1458 1452 1452 1452 1446 1440 1440 1440 1434 1434 1434 1428 1428 1422 1416 1416 1410 1410 1404 1404 1404 1399 1396 1393 1393 1388 1388 1388 1382 1382 1376 1376 1376 1366 1366 1366 1360 1360 1360 1355 1355 1350 1350 1344 1344 1344 1339 1339 1334 1329 1329 1324 1324 1319 1319 1319 1319 1314 1309 1309 1304 1304 1304 1299 1299 1294 1294 1289 1289 1284 1284 1284 1284 1280 1280 1280 1275 1275 1270 1265 1265 1265 1261 1261 1256 1256 1252 1247 1247 1247 1247 1243 1243 1243 1238 1234 1234 1229 1229 1225 1225 1221 1216 1216 1212 1212 1208 1208 1208 1204 1200 1200 1195 1195 1191 1191 1187 1183 1183 1183 1179 1179 1179 1175 1175 1175 1175 1171 0 0 0 0 0 0 0 0 0 0 0 0 0 0 0 0 0 0 0 0 0 0 0 0 0 0 0 0 0 0 0 0 0 0 0 0 0 0 0 0 0
    959 962 962 962 962 962 962 965 965 968 968 970 973 976 976 978 981 984 984 984 987 987 990 991 992 993 993 993 995 993 993 995 998 998 1001 1001 1004 1007 1010 1013 1013 1013 1016 1016 1019 1019 1019 1022 1022 1025 1025 1028 1031 1031 1031 1031 1034 1034 1037 1037 1040 1044 1047 1047 1047 1050 1050 1050 1053 1053 1056 1056 1060 1060 1063 1063 1063 1063 1066 1069 1073 1073 1073 1076 1076 1076 1079 1079 1079 1083 1083 1086 1086 1090 1090 1093 1093 1093 1097 1097 1100 1100 1104 1104 1104 1107 1107 1111 1111 1111 1111 1111 1111 1111 1111 1107 1107 1107 1107 1111 1114 1114 1114 1114 1118 1118 1118 1125 1129 1133 1148 1148 1148 1151 1151 1151 1155 1155 1157 1159 1159 1163 1163 1163 1167 1167 1171 1171 1175 1179 1179 1179 1179 1183 1183 1187 1187 1187 1191 1195 1195 1195 1195 1200 1200 1204 1204 1204 1208 1208 1208 1212 1212 1216 1221 1221 1225 1229 1229 1229 1234 1234 1234 1238 1238 1243 1243 1243 1247 1247 1247 1252 1252 1256 1256 1261 1261 1261 1265 1265 1265 1265 1270 1270 1275 1275 1280 1280 1280 1284 1289 1289 1289 1294 1299 1299 1299 1299 1299 1304 1304 1304 1309 1309 1314 1314 1319 1319 1324 1324 1324 1334 1334 1329 1339 1339 1339 1339 1455 1455 1462 1465 1462 1360 1360 1366 1366 1461 1459 1459 1645 1645 1645 1638 1638 1638 1630 1630 1622 1615 1607 1600 1600 1585 1458 1458 1458 1458 1452 1452 1452 1446 1446 1440 1440 1434 1434 1434 1434 1434 1434 1434 1440 1446 1446 1452 1452 1458 1458 1509 1515 1515 1515 1509 1509 1509 1509 1502 1502 1489 1489 1483 1483 1483 1483 1483 1477 1470 1470 1464 1458 1458 1452 1452 1452 1446 1440 1440 1440 1434 1434 1428 1428 1428 1422 1416 1410 1410 1410 1404 1404 1404 1399 1399 1393 1393 1388 1388 1388 1382 1382 1376 1376 1376 1366 1366 1366 1360 1360 1355 1355 1350 1350 1350 1344 1344 1344 1339 1339 1334 1329 1329 1324 1324 1319 1319 1319 1319 1314 1309 1309 1304 1304 1304 1299 1299 1294 1294 1289 1284 1284 1284 1284 1284 1280 1280 1280 1280 1275 1270 1265 1265 1265 1261 1261 1256 1256 1252 1247 1247 1247 1247 1243 1243 1238 1238 1234 1234 1229 1229 1225 1225 1221 1216 1212 1212 1208 1208 1208 1204 1204 1200 1195 1195 1191 1191 1191 1187 1187 1183 1183 1179 1179 1175 1175 1175 1171 1171 1171 0 0 0 0 0 0 0 0 0 0 0 0 0 0 0 0 0 0 0 0 0 0 0 0 0 0 0 0 0 0 0 0 0 0 0 0 0 0 0 0 0
    959 962 962 962 962 965 965 965 965 968 973 976 976 978 978 981 984 984 987 987 987 990 993 993 995 995 995 995 995 998 998 998 1001 1001 1004 1004 1010 1010 1010 1013 1013 1016 1016 1016 1019 1022 1022 1022 1025 1025 1028 1031 1031 1034 1034 1034 1034 1037 1037 1040 1040 1044 1047 1047 1047 1050 1050 1050 1053 1053 1056 1056 1060 1060 1060 1063 1063 1063 1066 1066 1069 1073 1073 1073 1076 1076 1076 1079 1079 1083 1083 1086 1086 1090 1090 1093 1093 1097 1097 1097 1100 1100 1104 1104 1104 1107 1107 1107 1111 1111 1114 1111 1111 1111 1111 1107 1107 1107 1107 1107 1111 1114 1114 1114 1118 1118 1118 1125 1129 1133 1148 1148 1148 1151 1151 1151 1151 1155 1159 1159 1159 1163 1163 1163 1167 1167 1171 1171 1175 1175 1179 1179 1179 1183 1183 1187 1191 1191 1191 1195 1195 1195 1195 1200 1200 1204 1204 1204 1208 1208 1208 1212 1212 1212 1216 1221 1225 1225 1229 1229 1234 1234 1234 1238 1238 1238 1243 1243 1243 1247 1247 1247 1252 1256 1256 1256 1261 1261 1265 1265 1265 1265 1265 1270 1275 1275 1280 1280 1280 1284 1284 1289 1289 1289 1294 1299 1299 1299 1299 1304 1304 0 0 0 1457 1457 1314 1314 1319 1324 1324 1319 1319 1324 1463 1460 1457 1457 1566 1566 1569 1571 1569 1465 1463 1464 1464 1557 1552 1552 1645 1645 1638 1638 1630 1630 1630 1622 1615 1615 1615 1607 1607 1592 1458 1458 1458 1452 1452 1452 1452 1446 1446 1434 1440 1440 1434 1434 1434 1434 1434 1434 1440 1452 1446 1446 1452 1458 1496 1509 1515 1515 1515 1509 1509 1509 1502 1502 1496 1489 1489 1483 1483 1483 1477 1477 1477 1470 1470 1464 1458 1452 1452 1452 1446 1446 1440 1440 1440 1434 1434 1434 1428 1428 1422 1422 1416 1410 1410 1404 1404 1404 1404 1393 1393 1393 1388 1388 1388 1382 1382 1382 1376 1376 1366 1366 1366 1360 1360 1360 1355 1355 1350 1350 1344 1344 1344 1339 1339 1334 1334 1329 1324 1324 1324 1319 1319 1319 1314 1309 1309 1304 1304 1304 1299 1299 1294 1289 1284 1284 1284 1280 1280 1280 1280 1280 1280 1275 1275 1270 1265 1265 1265 1261 1261 1256 1256 1252 1252 1247 1247 1247 1243 1243 1238 1238 1234 1234 1229 1229 1225 1225 1221 1216 1212 1212 1208 1208 1208 1204 1204 1200 1195 1195 1191 1191 1191 1187 1187 1183 1183 1179 1179 1175 1175 1171 1171 1171 1171 0 0 0 0 0 0 0 0 0 0 0 0 0 0 0 0 0 0 0 0 0 0 0 0 0 0 0 0 0 0 0 0 0 0 0 0 0 0 0 0 0
    959 962 965 965 965 965 968 965 965 970 976 978 981 981 981 984 984 987 987 987 990 990 993 995 998 998 998 998 998 998 1001 1001 1004 1004 1007 1007 1010 1010 1013 1013 1016 1016 1016 1019 1022 1022 1022 1025 1025 1028 1028 1031 1031 1034 1034 1034 1037 1037 1040 1040 1044 1044 1047 1047 1047 1050 1050 1053 1053 1053 1056 1056 1060 1060 1060 1063 1063 1063 1066 1066 1069 1069 1073 1073 1076 1076 1076 1076 1079 1083 1083 1086 1090 1090 1090 1093 1093 1097 1097 1097 1100 1100 1104 1104 1104 1104 1107 1107 1111 1111 1114 1111 1111 1111 1107 1107 1107 1104 1107 1107 1111 1114 1114 1114 1118 1118 1122 1125 1129 1136 1144 1148 1148 1148 1151 1151 1151 1155 1159 1159 1163 1163 1163 1163 1163 1167 1167 1171 1175 1179 1179 1179 1179 1183 1183 1187 1187 1191 1191 1195 1195 1195 1195 1200 1200 1204 1204 1208 1208 1208 1208 1212 1212 1212 1216 1221 1221 1225 1229 1229 1234 1234 1234 1238 1238 1243 1243 1243 1243 1247 1247 1252 1252 1256 1256 1261 1261 1261 1265 1265 1265 1265 1265 1270 1275 1275 1280 1280 1280 1284 1284 1284 1289 0 0 0 0 1299 1299 0 0 0 0 0 1601 1601 1529 1529 1523 1526 1526 1519 1519 1517 1587 1581 1575 1575 1677 1677 1677 1677 1677 1571 1566 1562 1562 1653 1645 1645 1645 1645 1638 1638 1630 1630 1630 1622 1622 1615 1615 1607 1607 1458 1458 1458 1458 1452 1452 1452 1452 1446 1446 1434 1434 1434 1434 1434 1434 1434 1434 1434 1440 1440 1446 1446 1452 1458 1509 1509 1509 1515 1509 1509 1509 1509 1509 1502 1496 1489 1489 1483 1483 1477 1477 1477 1470 1470 1470 1464 1458 1452 1452 1452 1446 1446 1440 1440 1440 1434 1434 1428 1428 1428 1422 1422 1416 1410 1410 1404 1404 1404 1399 1396 1393 1393 1388 1388 1388 1382 1382 1382 1376 1376 1366 1366 1366 1360 1360 1360 1355 1355 1350 1350 1344 1344 1339 1339 1339 1334 1334 1329 1324 1324 1324 1319 1319 1319 1314 1309 1309 1304 1304 1304 1299 1299 1294 1289 1289 1284 1284 1284 1284 1280 1280 1280 1280 1275 1270 1270 1265 1265 1265 1261 1261 1256 1252 1252 1247 1247 1247 1243 1243 1243 1238 1238 1234 1234 1229 1229 1225 1225 1221 1216 1212 1212 1208 1208 1208 1204 1204 1200 1200 1195 1195 1191 1191 1187 1187 1183 1183 1179 1179 1179 1175 1175 1171 1171 1167 0 0 0 0 0 0 0 0 0 0 0 0 0 0 0 0 0 0 0 0 0 0 0 0 0 0 0 0 0 0 0 0 0 0 0 0 0 0 0 0 0
    959 962 965 968 968 968 968 970 970 978 978 981 984 984 984 984 987 987 987 990 990 991 995 998 998 998 998 998 998 1001 1001 1001 1004 1007 1007 1010 1010 1013 1013 1016 1016 1019 1019 1022 1022 1022 1022 1025 1025 1028 1031 1031 1034 1034 1034 1034 1037 1037 1037 1040 1040 1044 1047 1047 1047 1050 1050 1053 1053 1053 1056 1056 1060 1060 1063 1063 1066 1066 1066 1066 1069 1073 1073 1073 1076 1076 1076 1076 1079 1083 1083 1086 1086 1090 1090 1093 1097 1097 1097 1100 1100 1100 1100 1104 1104 1104 1107 1107 1111 1111 1111 1111 1111 1111 1107 1104 1104 1104 1107 1107 1111 1114 1114 1114 1118 1118 1122 1129 1136 1140 1148 1148 1148 1148 1148 1151 1151 1155 1159 1159 1159 1163 1163 1163 1163 1167 1167 1171 1175 1175 1179 1179 1179 1183 1187 1187 1187 1191 1191 1195 1195 1195 1195 1200 1200 1204 1204 1208 1208 1208 1208 1212 1212 1216 1216 1216 1221 1225 1229 1229 1229 1234 1234 1234 1238 1243 1243 1243 1243 1247 1247 1252 1252 1256 1256 1256 1261 1261 1265 1265 1265 1265 1265 1270 1275 1275 1280 1280 1280 1284 0 0 0 0 0 0 0 0 0 0 0 0 0 0 1745 1745 1745 1745 1728 1728 1728 1719 1719 1711 1711 1702 1694 1694 1686 1686 1686 1677 1677 1677 1669 1661 1661 1653 1653 1645 1645 1645 1645 1638 1630 1630 1622 1622 1615 1615 1615 1615 1607 1458 1458 1458 1458 1452 1452 1452 1452 1446 1434 1434 1434 1428 1434 1434 1434 1434 1434 1434 1434 1440 1440 1446 1446 1458 1515 1509 1509 1509 1509 1509 1509 1509 1502 1502 1502 1496 1489 1483 1483 1483 1477 1477 1470 1470 1470 1464 1458 1458 1452 1452 1452 1446 1440 1440 1434 1434 1434 1428 1428 1428 1422 1422 1416 1410 1410 1410 1404 1404 1404 1399 1393 1388 1388 1388 1382 1382 1382 1382 1376 1376 1366 1366 1360 1360 1360 1360 1355 1355 1350 1350 1344 1344 1339 1339 1334 1334 1329 1329 1324 1324 1319 1319 1319 1319 1314 1309 1309 1309 1304 1304 1299 1299 1299 1294 1289 1284 1284 1284 1284 1280 1280 1280 1280 1275 1270 1270 1265 1265 1265 1261 1261 1252 1252 1252 1247 1247 1247 1243 1243 1243 1238 1238 1234 1234 1229 1229 1225 1225 1216 1212 1212 1212 1208 1208 1204 1200 1200 1195 1195 1191 1191 1187 1187 1183 1183 1183 1179 1179 1179 1175 1175 1171 1171 1171 1167 0 0 0 0 0 0 0 0 0 0 0 0 0 0 0 0 0 0 0 0 0 0 0 0 0 0 0 0 0 0 0 0 0 0 0 0 0 0 0 0 0
    962 968 968 970 970 970 970 970 973 978 981 984 987 987 987 987 987 990 990 991 991 993 995 998 998 998 998 998 1001 1001 1004 1007 1007 1007 1010 1010 1013 1013 1016 1016 1019 1019 1022 1022 1022 1022 1025 1025 1025 1028 1031 1031 1034 1034 1034 1034 1037 1037 1037 1037 1040 1044 1044 1047 1047 1050 1050 1053 1053 1053 1056 1056 1060 1060 1063 1063 1063 1066 1066 1066 1069 1069 1073 1073 1076 1076 1076 1076 1079 1083 1083 1086 1086 1090 1090 1093 1097 1097 1097 1100 1100 1100 1104 1104 1104 1104 1107 1107 1107 1111 1111 1111 1111 1107 1107 1104 1104 1104 1107 1107 1111 1114 1114 1118 1118 1122 1125 1133 1136 1140 1144 1148 1148 1148 1148 1151 1151 1155 1159 1159 1159 1163 1163 1163 1163 1167 1167 1171 1175 1179 1179 1179 1179 1183 1187 1187 1187 1191 1191 1195 1195 1195 1195 1200 1204 1204 1204 1208 1208 1212 1212 1212 1212 1212 1216 1216 1221 1225 1225 1229 1229 1229 1229 1234 1238 1238 1243 1243 1243 1247 1247 1247 1247 1252 1256 1256 1261 1261 1261 1265 1265 0 0 1270 1275 0 0 0 0 0 0 0 0 0 0 0 0 0 0 0 0 1763 1754 1745 1745 1745 1745 1736 1728 1728 1728 1719 1719 1711 1711 1702 1694 1686 1686 1686 1677 1677 1677 1677 1669 1661 1661 1653 1653 1653 1653 1645 1645 1645 1638 1630 1630 1622 1622 1615 1615 1615 1615 1540 1536 1458 1458 1452 1452 1446 1440 1440 1434 1434 1434 1428 1428 1428 1434 1434 1434 1434 1434 1440 1440 1440 1446 1458 1522 1515 1515 1515 1515 1509 1509 1509 1509 1509 1502 1496 1489 1483 1483 1477 1477 1477 1470 1470 1464 1464 1458 1458 1452 1452 1452 1446 1446 1440 1440 1434 1434 1428 1428 1428 1422 1422 1416 1410 1410 1410 1404 1404 1404 1399 1393 1388 1388 1388 1382 1382 1382 1382 1382 1376 1371 1366 1366 1360 1360 1360 1355 1355 1350 1350 1344 1344 1339 1339 1339 1334 1329 1329 1324 1324 1319 1319 1319 1319 1314 1309 1309 1309 1304 1304 1304 1299 1299 1294 1289 1289 1284 1284 1284 1280 1280 1280 1280 1275 1270 1270 1265 1265 1261 1261 1261 1252 1252 1252 1247 1247 1243 1243 1238 1238 1238 1238 1234 1229 1229 1229 1225 1225 1225 1216 1212 1212 1208 1204 1204 1200 1200 1195 1195 1191 1191 1191 1187 1183 1183 1183 1179 1179 1179 1179 1175 1171 1171 1167 1167 0 0 0 0 0 0 0 0 0 0 0 0 0 0 0 0 0 0 0 0 0 0 0 0 0 0 0 0 0 0 0 0 0 0 0 0 0 0 0 0 0
    968 970 970 970 973 973 976 976 976 981 984 984 987 987 987 987 990 990 991 993 993 995 995 998 998 998 1001 1001 1004 1004 1007 1007 1010 1010 1010 1013 1013 1016 1016 1019 1019 1019 1022 1022 1022 1025 1025 1025 1028 1031 1031 1031 1034 1034 1034 1034 1034 1037 1037 1040 1040 1044 1044 1047 1047 1050 1050 1053 1053 1053 1056 1056 1060 1060 1063 1063 1063 1066 1066 1066 1069 1069 1073 1073 1073 1076 1076 1079 1079 1083 1083 1086 1086 1090 1090 1093 1097 1097 1097 1100 1100 1100 1104 1104 1104 1104 1107 1107 1111 1111 1114 1114 1111 1111 1107 1104 1104 1104 1107 1107 1111 1114 1114 1118 1118 1122 1125 1133 1136 1140 1144 1144 1148 1148 1148 1151 1151 1155 1159 1159 1159 1163 1163 1163 1163 1167 1167 1171 1175 1175 1179 1179 1179 1183 1187 1187 1187 1191 1191 1195 1195 1195 1195 1200 1204 1204 1208 1208 1208 1212 1212 1212 1212 1216 1216 1221 1221 1225 1225 1229 1229 1229 1229 1234 1238 1238 1243 1243 1243 1243 1247 1247 1247 1252 1252 1256 1261 1261 0 0 0 0 0 0 0 0 0 0 0 0 0 0 0 1790 1790 1790 1790 0 0 1772 1763 1754 1754 1745 1745 1745 1736 1736 1728 1728 1719 1719 1719 1711 1711 1702 1694 1686 1686 1677 1677 1677 1677 1677 1669 1661 1661 1661 1653 1653 1645 1645 1645 1638 1638 1630 1622 1622 1622 1622 1622 1615 1615 1622 1615 1458 1458 1452 1446 1446 1446 1440 1434 1434 1434 1428 1428 1428 1434 1434 1434 1434 1440 1440 1440 1446 1446 1458 1515 1515 1515 1515 1515 1509 1509 1509 1509 1509 1502 1496 1489 1483 1483 1477 1477 1477 1477 1470 1470 1464 1458 1458 1452 1452 1452 1446 1446 1440 1440 1434 1434 1428 1428 1428 1422 1422 1416 1410 1410 1410 1404 1404 1404 1393 1388 1388 1388 1388 1382 1382 1382 1376 1376 1371 1366 1366 1360 1360 1360 1360 1355 1350 1350 1344 1344 1344 1339 1339 1339 1334 1334 1329 1324 1324 1324 1319 1319 1319 1314 1309 1309 1309 1304 1304 1299 1299 1299 1294 1289 1284 1284 1284 1280 1280 1280 1280 1280 1275 1270 1270 1265 1265 1265 1261 1261 1256 1252 1252 1252 1252 1247 1247 1243 1243 1238 1238 1234 1229 1229 1229 1225 1225 1221 1212 1212 1208 1208 1204 1200 1200 1195 1195 1191 1191 1191 1191 1187 1187 1183 1183 1179 1179 1179 1175 1175 1171 1171 1167 1167 0 0 0 0 0 0 0 0 0 0 0 0 0 0 0 0 0 0 0 0 0 0 0 0 0 0 0 0 0 0 0 0 0 0 0 0 0 0 0 0 0
    970 973 973 973 973 976 976 976 978 984 984 987 987 987 987 987 990 990 993 993 993 995 995 998 998 998 998 1001 1001 1004 1004 1007 1007 1010 1010 1013 1013 1016 1016 1016 1016 1019 1019 1022 1022 1022 1025 1025 1028 1031 1031 1031 1034 1034 1034 1034 1037 1037 1037 1040 1044 1047 1047 1047 1047 1050 1050 1053 1053 1056 1056 1056 1060 1060 1060 1063 1063 1063 1063 1066 1066 1069 1069 1073 1073 1076 1076 1079 1079 1083 1083 1086 1086 1090 1090 1093 1097 1097 1097 1100 1100 1100 1104 1104 1104 1104 1107 1107 1111 1111 1111 1111 1111 1111 1107 1107 1104 1104 1107 1107 1111 1114 1118 1118 1118 1122 1125 1133 1140 1140 1144 1148 1148 1148 1148 1151 1151 1157 1159 1159 1159 1163 1163 1163 1167 1167 1167 1171 1175 1175 1179 1179 1179 1183 1183 1187 1187 1191 1191 1195 1195 1195 1195 1200 1204 1204 1208 1208 1212 1212 1212 1212 1212 1212 1216 1216 1221 1221 1225 1229 1229 1229 1229 1234 1238 1238 1238 1238 1238 1243 1243 1243 1243 1247 0 0 0 0 0 0 0 0 0 0 0 0 0 0 0 0 1800 1800 1790 1790 1790 1790 1781 1772 1763 1763 1763 1754 1754 1745 1745 1745 1736 1736 1728 1728 1719 1719 1719 1711 1711 1702 1702 1694 1686 1686 1686 1677 1677 1677 1669 1661 1661 1653 1653 1653 1645 1645 1645 1638 1638 1630 1622 1622 1622 1622 1622 1622 1622 1622 1615 1452 1452 1452 1446 1446 1440 1440 1434 1434 1434 1428 1428 1428 1434 1434 1434 1434 1440 1440 1440 1446 1446 1458 1515 1522 1515 1515 1515 1509 1509 1509 1509 1502 1502 1496 1489 1483 1483 1483 1477 1477 1477 1470 1470 1464 1458 1458 1452 1452 1452 1446 1446 1440 1440 1434 1434 1428 1428 1428 1422 1422 1416 1410 1410 1410 1404 1404 1399 1393 1388 1388 1388 1388 1382 1382 1382 1376 1376 1371 1366 1366 1366 1360 1360 1360 1355 1355 1350 1344 1344 1344 1339 1339 1334 1334 1334 1329 1329 1324 1324 1324 1319 1319 1314 1314 1309 1309 1304 1304 1304 1299 1299 1294 1289 1289 1284 1284 1284 1280 1280 1280 1275 1275 1270 1265 1265 1265 1261 1261 1261 1261 1252 1252 1252 1247 1247 1247 1243 1243 1243 1238 1238 1234 1229 1229 1225 1225 1221 1212 1212 1212 1208 1204 1204 1200 1195 1195 1191 1191 1191 1187 1187 1187 1183 1183 1179 1179 1179 1179 1175 1171 1167 1167 1163 0 0 0 0 0 0 0 0 0 0 0 0 0 0 0 0 0 0 0 0 0 0 0 0 0 0 0 0 0 0 0 0 0 0 0 0 0 0 0 0 0
    970 973 973 973 976 976 976 978 978 984 984 987 987 987 987 990 990 990 993 993 995 995 998 998 998 998 998 1001 1001 1001 1004 1007 1010 1010 1010 1013 1013 1016 1016 1016 1016 1019 1022 1022 1025 1025 1028 1028 1028 1031 1031 1034 1034 1034 1034 1037 1037 1037 1040 1044 1044 1047 1047 1047 1047 1050 1050 1053 1053 1056 1056 1060 1060 1060 1060 1063 1063 1066 1066 1066 1066 1069 1069 1073 1073 1076 1076 1079 1079 1083 1083 1086 1086 1090 1090 1093 1097 1097 1100 1100 1100 1100 1104 1104 1104 1107 1107 1107 1111 1111 1111 1111 1111 1111 1107 1107 1107 1107 1107 1107 1111 1114 1118 1118 1122 1125 1125 1136 1140 1144 1144 1144 1148 1148 1148 1151 1151 1159 1159 1159 1163 1163 1163 1163 1167 1167 1167 1171 1175 1175 1179 1179 1179 1179 1183 1187 1187 1191 1191 1195 1195 1195 1200 1200 1204 1204 1208 1208 1212 1212 1212 1212 1216 1216 1216 1216 1221 1221 1225 1225 1229 1229 1229 0 0 0 1238 0 0 0 0 0 0 0 0 0 0 0 0 0 0 0 0 0 0 1809 1809 1809 1800 1800 1790 1790 1790 1790 1781 1781 1781 1772 1763 1763 1754 1754 1754 1745 1745 1745 1736 1736 1728 1719 1719 1719 1711 1711 1711 1702 1702 1694 1686 1686 1686 1677 1677 1677 1669 1661 1661 1661 1653 1653 1653 1645 1645 1645 1638 1630 1630 1630 1622 1622 1622 1622 1622 1622 1615 1452 1452 1452 1446 1446 1440 1440 1434 1434 1428 1428 1428 1428 1434 1434 1434 1434 1440 1440 1440 1446 1446 1452 1522 1522 1515 1515 1515 1509 1509 1509 1509 1502 1502 1496 1489 1483 1483 1477 1477 1477 1477 1470 1470 1464 1458 1458 1458 1452 1452 1446 1446 1440 1440 1434 1434 1434 1428 1428 1422 1422 1416 1410 1410 1410 1404 1404 1404 1393 1388 1388 1388 1382 1382 1382 1382 1376 1376 1371 1366 1366 1366 1360 1360 1360 1355 1355 1350 1344 1344 1344 1339 1339 1334 1334 1334 1329 1329 1324 1324 1319 1319 1314 1314 1309 1304 1304 1304 1304 1304 1299 1299 1294 1289 1284 1284 1284 1284 1280 1280 1280 1280 1275 1270 1265 1265 1265 1261 1261 1261 1261 1252 1252 1252 1247 1247 1247 1243 1243 1243 1238 1238 1234 1229 1229 1221 1221 1216 1212 1212 1212 1208 1208 1204 1200 1195 1195 1195 1191 1191 1191 1187 1187 1183 1183 1183 1179 1179 1179 1175 1171 1171 1167 1163 0 0 0 0 0 0 0 0 0 0 0 0 0 0 0 0 0 0 0 0 0 0 0 0 0 0 0 0 0 0 0 0 0 0 0 0 0 0 0 0 0
    973 973 973 976 976 976 976 978 978 981 984 987 987 987 990 990 990 990 990 995 995 995 998 998 998 998 998 1001 1001 1001 1004 1007 1010 1010 1010 1013 1013 1016 1016 1016 1016 1019 1022 1022 1022 1025 1025 1025 1028 1028 1031 1031 1034 1034 1034 1037 1037 1037 1040 1040 1044 1047 1047 1047 1047 1047 1050 1053 1053 1056 1056 1060 1060 1060 1063 1063 1063 1066 1066 1066 1067 1069 1069 1073 1073 1076 1076 1079 1079 1083 1083 1086 1086 1086 1090 1093 1093 1093 1097 1100 1100 1100 1104 1104 1104 1107 1107 1111 1111 1111 1111 1111 1111 1107 1107 1104 1104 1104 1104 1107 1111 1114 1118 1118 1122 1125 1129 1140 1140 1144 1144 1144 1148 1148 1148 1151 1151 1159 1159 1159 1163 1163 1163 1167 1167 1167 1171 1171 1175 1175 1179 1179 1179 1179 1183 1183 1187 1187 1191 1195 1195 1195 1200 1200 1204 1204 1208 1208 1212 1212 1212 1212 1212 1212 1212 1216 1221 1221 1225 1225 1225 0 0 0 0 0 0 0 0 0 0 0 0 0 0 0 0 0 0 0 0 1838 1828 1828 1819 1809 1809 1809 1800 1800 1790 1790 1790 1781 1781 1781 1781 1772 1763 1763 1754 1754 1754 1745 1745 1745 1736 1736 1728 1719 1719 1719 1711 1711 1711 1702 1702 1694 1686 1686 1686 1677 1677 1669 1669 1661 1661 1661 1653 1653 1653 1653 1645 1645 1638 1638 1630 1630 1622 1622 1622 1622 1622 1622 1615 1452 1452 1452 1446 1446 1446 1440 1434 1434 1428 1428 1428 1428 1434 1434 1434 1434 1440 1440 1440 1446 1446 1452 1522 1515 1515 1515 1515 1509 1509 1509 1509 1502 1502 1496 1489 1483 1483 1483 1477 1477 1477 1470 1470 1464 1458 1458 1452 1452 1452 1446 1446 1440 1440 1434 1434 1428 1428 1422 1422 1416 1416 1410 1410 1410 1404 1404 1399 1393 1388 1388 1382 1382 1382 1376 1376 1376 1376 1371 1366 1366 1366 1360 1360 1360 1355 1355 1350 1344 1344 1344 1339 1339 1339 1334 1329 1329 1324 1324 1324 1319 1319 1319 1314 1309 1304 1304 1304 1304 1304 1299 1299 1299 1294 1289 1284 1284 1284 1280 1280 1280 1280 1275 1270 1265 1265 1265 1261 1261 1261 1261 1252 1252 1252 1247 1247 1243 1243 1243 1243 1238 1238 1234 1229 1229 1221 1221 1216 1212 1212 1212 1208 1208 1200 1200 1195 1195 1195 1191 1191 1191 1187 1183 1183 1183 1179 1179 1179 1179 1175 1175 1171 1167 1163 0 0 0 0 0 0 0 0 0 0 0 0 0 0 0 0 0 0 0 0 0 0 0 0 0 0 0 0 0 0 0 0 0 0 0 0 0 0 0 0 0
    970 970 970 973 973 976 976 976 978 978 981 981 984 987 987 987 990 990 991 995 995 995 995 995 998 998 998 1001 1004 1004 1007 1007 1010 1010 1013 1013 1016 1016 1019 1019 1019 1019 1022 1022 1022 1025 1025 1025 1028 1028 1031 1031 1034 1034 1034 1037 1037 1037 1040 1040 1040 1044 1044 1047 1047 1050 1050 1053 1053 1056 1056 1060 1060 1060 1060 1063 1063 1063 1066 1069 1069 1069 1073 1073 1073 1076 1076 1079 1079 1079 1083 1083 1086 1086 1090 1093 1097 1097 1097 1100 1100 1100 1104 1104 1104 1107 1107 1107 1107 1107 1111 1111 1107 1107 1104 1104 1104 1104 1104 1107 1111 1114 1118 1118 1122 1125 1129 1140 1140 1144 1144 1144 1148 1148 1148 1151 1151 1159 1159 1159 1159 1163 1163 1163 1167 1167 1171 1171 1175 1175 1179 1179 1183 1183 1187 1187 1191 1191 1191 1195 1195 1195 1204 1208 1208 1208 1212 1212 1212 1212 1212 1212 1216 1212 1212 1212 0 0 0 0 0 0 0 0 0 0 0 0 0 0 0 0 0 0 0 0 0 1868 1858 1858 1848 1838 1828 1828 1819 1809 1809 1809 1800 1800 1790 1790 1790 1790 1781 1781 1781 1772 1772 1763 1763 1754 1754 1745 1745 1745 1736 1736 1728 1728 1719 1719 1711 1711 1711 1702 1702 1702 1694 1694 1686 1677 1677 1677 1669 1669 1661 1661 1653 1653 1653 1653 1645 1645 1638 1638 1630 1630 1622 1622 1622 1622 1622 1622 1452 1452 1452 1452 1446 1446 1440 1440 1434 1434 1428 1428 1428 1428 1428 1434 1434 1434 1440 1440 1440 1440 1446 1458 1529 1522 1522 1515 1515 1509 1509 1509 1509 1502 1502 1496 1489 1483 1483 1483 1477 1477 1477 1477 1470 1464 1458 1458 1458 1452 1452 1452 1446 1440 1440 1440 1434 1434 1428 1428 1422 1422 1416 1410 1410 1410 1404 1404 1404 1393 1388 1388 1388 1388 1382 1376 1376 1376 1376 1371 1366 1366 1366 1360 1360 1360 1355 1355 1350 1344 1344 1344 1339 1339 1339 1334 1329 1329 1324 1324 1324 1319 1319 1319 1314 1309 1309 1309 1304 1304 1304 1299 1299 1294 1289 1289 1284 1284 1284 1280 1280 1280 1280 1275 1265 1267 1265 1265 1265 1261 1261 1261 1256 1252 1252 1247 1247 1247 1243 1243 1243 1238 1238 1234 1229 1229 1225 1221 1216 1216 1212 1212 1208 1208 1204 1200 1195 1195 1195 1191 1191 1191 1187 1183 1183 1179 1179 1179 1179 1179 1175 1171 1171 1167 1163 0 0 0 0 0 0 0 0 0 0 0 0 0 0 0 0 0 0 0 0 0 0 0 0 0 0 0 0 0 0 0 0 0 0 0 0 0 0 0 0 0
    970 970 973 973 973 976 976 978 978 981 981 984 984 987 987 990 990 990 993 993 993 995 995 998 998 998 1001 1001 1004 1004 1004 1007 1010 1010 1013 1013 1016 1016 1019 1019 1019 1019 1022 1022 1022 1025 1025 1025 1028 1028 1028 1031 1034 1034 1034 1037 1037 1037 1040 1040 1040 1044 1044 1047 1047 1050 1050 1053 1053 1056 1060 1060 1060 1060 1060 1060 1063 1063 1066 1069 1069 1069 1073 1073 1073 1076 1076 1079 1079 1079 1083 1086 1086 1086 1090 1093 1093 1097 1097 1100 1100 1100 1104 1104 1104 1107 1107 1111 1111 1111 1111 1111 1111 1111 1107 1104 1104 1104 1104 1107 1111 1114 1114 1118 1122 1125 1129 1136 1140 1144 1144 1144 1144 1148 1148 1151 1151 1155 1155 1159 1159 1163 1163 1163 1167 1167 1171 1171 1175 1175 1179 1179 1179 1179 1183 1187 1191 1191 1191 0 0 0 0 0 0 0 0 0 0 0 0 0 0 0 0 0 0 0 0 0 0 0 0 0 0 0 0 0 0 0 0 0 0 0 1868 1868 1868 1858 1858 1858 1848 1838 1828 1828 1819 1819 1809 1809 1800 1800 1800 1790 1790 1781 1781 1781 1781 1772 1763 1763 1763 1754 1754 1745 1745 1745 1745 1745 1728 1728 1719 1719 1711 1711 1711 1702 1702 1702 1694 1694 1686 1686 1677 1677 1669 1669 1661 1661 1653 1653 1653 1645 1645 1645 1638 1638 1630 1630 1622 1622 1622 1622 1622 1622 1452 1452 1452 1452 1452 1446 1446 1440 1440 1434 1428 1428 1428 1428 1428 1434 1434 1434 1440 1440 1446 1446 1446 1452 1529 1522 1522 1515 1515 1509 1509 1509 1509 1502 1502 1489 1489 1483 1483 1483 1477 1477 1477 1477 1470 1464 1458 1458 1452 1452 1452 1446 1446 1440 1440 1440 1434 1428 1428 1428 1422 1416 1416 1410 1410 1410 1404 1404 1404 1393 1388 1388 1388 1388 1382 1382 1376 1376 1376 1371 1366 1366 1366 1360 1360 1360 1355 1355 1350 1344 1344 1344 1339 1339 1339 1334 1334 1334 1329 1324 1324 1319 1319 1319 1314 1309 1309 1304 1304 1304 1299 1299 1299 1294 1294 1289 1289 1284 1284 1284 1284 1280 1280 1280 1265 1270 1265 1265 1265 1265 1261 1261 1256 1252 1247 1247 1247 1243 1243 1243 1243 1238 1234 1234 1229 1229 1221 1221 1216 1216 1212 1212 1208 1208 1204 1200 1200 1195 1195 1195 1191 1191 1187 1187 1187 1183 1183 1179 1179 1179 1175 1171 1171 1167 1163 0 0 0 0 0 0 0 0 0 0 0 0 0 0 0 0 0 0 0 0 0 0 0 0 0 0 0 0 0 0 0 0 0 0 0 0 0 0 0 0 0
    970 970 973 973 976 976 976 978 978 978 981 981 984 984 987 987 990 990 990 990 990 995 995 995 998 998 1001 1001 1004 1004 1004 1007 1010 1010 1013 1013 1016 1016 1019 1019 1019 1022 1022 1022 1022 1025 1025 1025 1028 1028 1028 1031 1034 1034 1034 1037 1037 1037 1040 1040 1040 1044 1044 1047 1047 1050 1050 1053 1056 1056 1060 1060 1060 1060 1060 1060 1063 1063 1066 1069 1069 1073 1073 1073 1076 1076 1076 1079 1079 1083 1083 1086 1086 1086 1090 1090 1093 1093 1097 1097 1100 1100 1100 1104 1104 1107 1107 1107 1111 1111 1111 1111 1111 1111 1107 1107 1104 1104 1104 1107 1111 1114 1114 1118 1122 1122 1125 1136 1140 1144 1144 1144 1148 1148 1148 1151 1151 1155 1155 1155 1159 1159 1163 1163 1163 1167 1167 1167 0 0 0 0 0 0 0 0 0 0 0 0 0 0 0 0 0 0 0 0 0 0 0 0 0 0 0 0 0 0 0 0 0 0 0 1909 1899 1899 0 1899 1899 1899 1888 1888 1878 1878 1868 1868 1868 1858 1858 1858 1848 1838 1828 1828 1819 1819 1819 1809 1800 1800 1790 1790 1790 1790 1781 1781 1781 1772 1772 1763 1763 1754 1754 1749 1745 1745 1745 1745 1736 1728 1728 1719 1719 1711 1711 1711 1702 1702 1694 1686 1686 1677 1677 1677 1669 1669 1661 1661 1653 1653 1645 1645 1645 1638 1638 1638 1630 1630 1622 1622 1622 1622 1622 1622 1452 1452 1452 1452 1452 1446 1446 1440 1434 1428 1428 1428 1428 1428 1428 1434 1434 1434 1440 1440 1446 1446 1446 1452 1522 1522 1515 1515 1515 1509 1509 1509 1502 1502 1502 1489 1483 1483 1483 1483 1477 1477 1477 1477 1470 1464 1458 1458 1452 1452 1452 1446 1446 1440 1440 1434 1434 1428 1428 1422 1422 1416 1416 1410 1410 1410 1404 1404 1404 1396 1393 1388 1388 1388 1382 1382 1376 1376 1376 1371 1366 1366 1366 1360 1360 1360 1355 1355 1350 1344 1344 1344 1339 1339 1339 1334 1334 1329 1329 1324 1324 1319 1319 1314 1314 1309 1304 1304 1304 1304 1299 1299 1299 1294 1294 1289 1284 1284 1284 1284 1280 1280 1280 1280 1265 1270 1265 1265 1265 1265 1265 1261 1256 1252 1247 1247 1247 1243 1243 1243 1243 1238 1234 1234 1229 1225 1221 1216 1212 1212 1212 1212 1208 1208 1204 1200 1200 1195 1195 1195 1191 1191 1191 1191 1187 1187 1183 1183 1179 1179 1175 1171 1167 1167 1167 0 0 0 0 0 0 0 0 0 0 0 0 0 0 0 0 0 0 0 0 0 0 0 0 0 0 0 0 0 0 0 0 0 0 0 0 0 0 0 0 0
    970 970 973 973 973 976 976 978 978 978 981 981 984 984 987 987 987 990 990 990 990 993 993 995 995 998 1001 1001 1004 1004 1004 1007 1010 1010 1013 1013 1016 1016 1016 1019 1019 1022 1022 1022 1022 1025 1025 1025 1025 1028 1028 1031 1034 1034 1034 1037 1037 1037 1040 1040 1040 1044 1044 1047 1047 1050 1050 1053 1053 1056 1060 1060 1060 1060 1060 1063 1063 1063 1066 1069 1073 1073 1073 1073 1076 1076 1076 1079 1079 1083 1083 1086 1086 1086 1090 1090 1093 1093 1097 1097 1100 1100 1100 1104 1104 1104 1107 1107 1107 1111 1111 1111 1111 1107 1107 1104 1104 1104 1104 1107 1111 1114 1114 1118 1122 1122 1125 1140 1144 1144 1144 1144 1144 1148 1148 1151 1151 1155 1155 1155 1159 1159 1163 1163 1167 0 0 0 0 0 0 0 0 0 0 0 0 0 0 0 0 0 0 0 0 0 0 0 0 0 0 0 0 0 0 0 0 0 0 0 0 1920 1909 1909 1899 1899 1899 1899 1899 1899 1888 1888 1878 1868 1868 1868 1868 1858 1858 1848 1848 1838 1828 1828 1819 1819 1819 1809 1809 1800 1800 1790 1790 1790 1781 1781 1781 1772 1772 1763 1763 1754 1754 1754 1745 1745 1745 1745 1736 1728 1719 1719 1719 1711 1711 1711 1702 1702 1694 1694 1686 1677 1677 1677 1669 1669 1661 1661 1653 1653 1645 1645 1645 1638 1638 1630 1630 1630 1622 1622 1622 1622 1622 1622 1452 1452 1452 1452 1452 1446 1446 1440 1434 1434 1428 1428 1428 1428 1428 1434 1434 1434 1440 1446 1446 1446 1446 1452 1522 1515 1515 1515 1509 1509 1509 1502 1502 1502 1496 1489 1483 1483 1483 1483 1477 1477 1477 1477 1470 1470 1458 1458 1452 1452 1446 1446 1446 1440 1440 1434 1434 1428 1428 1422 1422 1422 1416 1410 1410 1410 1404 1404 1404 1399 1393 1388 1388 1388 1382 1382 1382 1376 1371 1371 1366 1366 1366 1360 1360 1360 1360 1355 1350 1344 1339 1339 1339 1339 1339 1334 1329 1329 1324 1324 1324 1319 1319 1314 1314 1309 1304 1304 1304 1304 1299 1299 1294 1294 1289 1289 1289 1284 1284 1284 1280 1280 1280 1275 1267 1265 1265 1265 1265 1261 1261 1261 1256 1247 1247 1247 1247 1243 1243 1238 1238 1238 1234 1229 1229 1225 1221 1216 1216 1212 1212 1208 1208 1204 1204 1200 1195 1195 1195 1195 1191 1191 1191 1187 1187 1183 1183 1179 1179 1179 1175 1171 1171 1167 1167 0 0 0 0 0 0 0 0 0 0 0 0 0 0 0 0 0 0 0 0 0 0 0 0 0 0 0 0 0 0 0 0 0 0 0 0 0 0 0 0 0
    970 970 973 973 976 976 976 978 978 981 981 984 984 984 987 987 987 990 990 990 990 993 993 995 998 998 1001 1001 1004 1004 1004 1007 1010 1010 1013 1013 1013 1016 1016 1016 1019 1019 1022 1022 1022 1025 1025 1025 1025 1025 1028 1031 1031 1034 1034 1034 1037 1037 1037 1040 1044 1044 1047 1047 1047 1050 1050 1053 1053 1056 1060 1060 1060 1060 1063 1063 1063 1063 1066 1069 1073 1073 1073 1073 1076 1076 1076 1079 1079 1083 1083 1086 1086 1086 1090 1090 1093 1093 1097 1097 1100 1100 1100 1104 1104 1104 1107 1111 1111 1111 1111 1111 1107 1107 1104 1104 1104 1104 1104 1107 1111 1114 1114 1114 1118 1122 1122 1140 1144 1144 1144 1144 1144 1148 1148 1151 1151 1151 1155 1155 1159 1159 1159 0 0 0 0 0 0 0 0 0 0 0 0 0 0 0 0 0 0 0 0 0 0 0 0 0 1868 1868 1868 1868 1878 1878 0 0 1931 1941 1941 1931 1931 1920 1909 1909 1909 1899 1899 1899 1899 1888 1888 1878 1868 1868 1868 1858 1858 1858 1848 1838 1838 1828 1828 1819 1819 1819 1819 1809 1809 1800 1800 1790 1790 1790 1781 1781 1781 1772 1772 1763 1763 1754 1754 1754 1745 1745 1745 1745 1736 1728 1719 1719 1719 1711 1711 1711 1702 1702 1694 1686 1686 1686 1677 1677 1669 1669 1669 1661 1653 1653 1645 1645 1638 1638 1638 1630 1630 1630 1622 1622 1622 1622 1622 1458 1458 1458 1458 1452 1452 1446 1446 1440 1434 1434 1428 1428 1428 1428 1428 1434 1434 1434 1440 1446 1446 1446 1446 1452 1458 1502 1509 1509 1509 1509 1502 1502 1502 1496 1496 1483 1483 1483 1483 1483 1477 1477 1470 1470 1470 1464 1458 1458 1458 1452 1452 1446 1446 1440 1434 1434 1434 1428 1428 1422 1416 1416 1410 1410 1410 1410 1404 1404 1404 1399 1393 1388 1388 1382 1382 1376 1376 1376 1371 1371 1366 1366 1366 1366 1360 1360 1360 1355 1350 1344 1344 1339 1339 1339 1334 1334 1329 1329 1324 1324 1319 1319 1319 1314 1314 1309 1304 1304 1304 1299 1299 1299 1294 1294 1289 1289 1289 1284 1284 1284 1280 1280 1280 1275 1270 1265 1265 1265 1265 1261 1261 1261 1252 1247 1247 1243 1247 1243 1243 1243 1238 1238 1234 1229 1225 1225 1221 1216 1212 1212 1212 1208 1208 1208 1204 1200 1195 1195 1195 1195 1191 1191 1191 1187 1187 1183 1183 1179 1179 1175 1175 1171 1171 1167 1167 0 0 0 0 0 0 0 0 0 0 0 0 0 0 0 0 0 0 0 0 0 0 0 0 0 0 0 0 0 0 0 0 0 0 0 0 0 0 0 0 0
    970 970 973 973 976 976 976 978 978 981 981 981 984 984 984 987 987 987 987 990 990 990 993 995 998 998 1001 1001 1004 1004 1004 1007 1010 1010 1013 1013 1013 1016 1016 1016 1019 1022 1022 1022 1025 1025 1025 1025 1025 1025 1028 1025 1031 1034 1034 1037 1037 1037 1037 1037 1040 1044 1044 1047 1047 1050 1050 1053 1053 1056 1056 1060 1060 1060 1060 1063 1063 1063 1066 1069 1069 1073 1073 1073 1073 1076 1076 1079 1079 1083 1083 1086 1086 1086 1090 1090 1090 1093 1097 1097 1100 1100 1100 1104 1104 1104 1107 1107 1107 1111 1111 1111 1107 1104 1104 1104 1104 1104 1104 1107 1111 1111 1114 1114 1118 1122 1125 1140 1144 1144 1144 1144 1144 1144 1148 1148 1148 0 0 0 0 0 0 0 0 0 0 0 0 0 0 0 0 0 0 0 0 0 0 1868 1868 1868 1858 1858 1858 1858 1858 1858 1868 1868 1868 1878 1878 1878 1899 1920 1931 1931 1941 1941 1931 1931 1920 1920 1909 1909 1909 1899 1899 1888 1888 1878 1878 1868 1868 1868 1858 1858 1848 1838 1838 1828 1828 1819 1819 1819 1819 1819 1809 1809 1800 1800 1790 1790 1790 1781 1781 1772 1772 1763 1763 1754 1754 1754 1745 1745 1745 1745 1736 1728 1728 1719 1719 1719 1711 1711 1711 1702 1694 1686 1686 1677 1677 1677 1669 1669 1661 1653 1653 1645 1645 1645 1638 1638 1638 1630 1630 1622 1622 1622 1615 1615 1615 1458 1458 1458 1458 1452 1452 1446 1446 1440 1434 1434 1428 1428 1428 1428 1428 1434 1434 1434 1440 1446 1446 1446 1452 1458 1458 1502 1509 1509 1509 1509 1502 1502 1502 1502 1496 1483 1483 1483 1483 1477 1477 1470 1470 1470 1464 1464 1458 1458 1458 1452 1452 1446 1446 1440 1440 1434 1434 1428 1428 1422 1416 1416 1410 1410 1410 1410 1404 1404 1404 1399 1393 1393 1388 1382 1382 1382 1376 1376 1371 1371 1366 1366 1366 1360 1360 1360 1360 1355 1350 1344 1344 1344 1339 1339 1334 1334 1329 1329 1324 1324 1319 1319 1319 1314 1314 1309 1304 1304 1304 1299 1299 1294 1294 1294 1289 1289 1289 1284 1284 1284 1280 1280 1275 1270 1270 1265 1265 1265 1265 1261 1261 1256 1252 1247 1247 1247 1247 1243 1243 1243 1238 1238 1234 1229 1229 1225 1221 1216 1212 1212 1208 1208 1208 1204 1204 1200 1200 1195 1195 1195 1195 1191 1191 1191 1187 1183 1179 1179 1179 1175 1171 1171 1167 1167 1167 0 0 0 0 0 0 0 0 0 0 0 0 0 0 0 0 0 0 0 0 0 0 0 0 0 0 0 0 0 0 0 0 0 0 0 0 0 0 0 0 0
    970 970 973 973 976 976 976 978 978 981 981 981 984 984 984 984 987 987 987 990 990 990 993 995 998 998 1001 1001 1001 1004 1004 1007 1010 1010 1010 1010 1013 1016 1016 1016 1019 1022 1022 1022 1025 1025 1025 1025 1025 1025 1025 1028 1031 1034 1034 1037 1037 1037 1037 1040 1044 1044 1047 1047 1050 1050 1053 1053 1056 1056 1060 1060 1060 1060 1060 1063 1063 1063 1066 1069 1069 1073 1073 1073 1076 1076 1076 1079 1083 1083 1086 1086 1086 1086 1090 1090 1090 1093 1093 1097 1097 1100 1100 1100 1104 1104 1107 1107 1107 1107 1111 1107 1104 1100 1100 1104 1104 1104 1104 1107 1111 1114 1114 1114 1118 1122 1122 1140 1140 1144 1144 1140 1140 1144 0 0 0 0 0 0 0 0 0 0 0 0 0 0 1964 1964 1952 1941 1941 1931 1931 1909 1899 1888 1878 1868 1868 1868 1858 1858 1858 1858 1858 1858 1868 1868 1868 1878 1878 1878 1888 1909 1920 1931 1931 1941 1931 1931 1920 1920 1909 1909 1909 1899 1899 1888 1888 1878 1878 1868 1868 1868 1858 1858 1848 1838 1828 1828 1828 1819 1819 1819 1819 1819 1809 1800 1800 1790 1790 1790 1790 1781 1781 1772 1772 1763 1754 1754 1754 1754 1749 1745 1745 1745 1736 1728 1719 1719 1719 1719 1711 1711 1702 1702 1694 1686 1686 1686 1677 1677 1677 1669 1669 1661 1653 1653 1645 1645 1638 1638 1630 1630 1630 1622 1622 1622 1615 1615 1615 1458 1458 1458 1458 1452 1452 1452 1446 1440 1434 1434 1434 1428 1428 1428 1434 1434 1434 1434 1440 1440 1452 1446 1446 1458 1458 1502 1509 1509 1509 1509 1509 1502 1502 1502 1496 1489 1477 1477 1477 1477 1477 1470 1470 1470 1464 1464 1458 1458 1458 1452 1452 1452 1446 1446 1440 1434 1434 1428 1428 1422 1416 1416 1410 1410 1410 1410 1404 1404 1404 1399 1393 1393 1388 1388 1388 1382 1382 1376 1376 1371 1366 1366 1366 1366 1366 1360 1360 1355 1355 1350 1344 1344 1339 1339 1334 1334 1329 1329 1324 1324 1319 1319 1319 1314 1314 1309 1304 1304 1304 1299 1299 1294 1294 1294 1289 1289 1284 1284 1284 1280 1275 1275 1275 1270 1270 1265 1265 1265 1265 1261 1261 1256 1252 1247 1247 1247 1247 1243 1243 1243 1243 1238 1234 1229 1229 1229 1221 1216 1212 1212 1212 1208 1208 1208 1204 1200 1200 1195 1195 1195 1195 1191 1191 1191 1187 1187 1183 1179 1179 1175 1175 1171 1171 1167 1171 0 0 0 0 0 0 0 0 0 0 0 0 0 0 0 0 0 0 0 0 0 0 0 0 0 0 0 0 0 0 0 0 0 0 0 0 0 0 0 0 0
    970 973 973 976 976 976 978 978 978 981 984 984 984 984 984 987 987 987 987 990 990 990 993 995 998 998 1001 1001 1001 1004 1004 1007 1010 1010 1013 1013 1013 1013 1016 1016 1019 1022 1022 1022 1025 1025 1025 1025 1028 1028 1031 1031 1034 1034 1034 1037 1037 1037 1037 1040 1044 1047 1047 1047 1050 1050 1053 1053 1056 1056 1060 1060 1060 1060 1060 1060 1063 1063 1066 1066 1069 1069 1069 1073 1073 1076 1076 1079 1083 1083 1083 1086 1086 1086 1086 1090 1090 1093 1093 1097 1097 1100 1100 1100 1104 1104 1104 1104 1107 1107 1107 1104 1100 1097 1100 1100 1100 1104 1104 1107 1111 1111 1114 1114 1118 1118 1122 0 0 0 0 0 0 0 0 0 0 0 0 0 0 0 0 0 0 1964 1975 1964 1952 1952 1941 1941 1941 1941 1931 1931 1909 1899 1878 1868 1868 1858 1858 1858 1858 1858 1858 1858 1868 1868 1868 1878 1878 1878 1888 1899 1909 1931 1931 1941 1941 1931 1931 1920 1920 1909 1909 1909 1899 1899 1888 1888 1878 1878 1868 1868 1858 1858 1848 1838 1838 1828 1828 1828 1819 1819 1819 1819 1809 1809 1800 1800 1790 1790 1790 1781 1781 1772 1763 1763 1754 1754 1754 1754 1754 1745 1745 1745 1728 1728 1719 1719 1719 1711 1711 1711 1702 1702 1694 1686 1686 1686 1677 1677 1669 1669 1661 1653 1653 1645 1645 1645 1638 1638 1638 1630 1630 1622 1622 1622 1622 1615 1615 1458 1458 1458 1458 1452 1452 1452 1446 1440 1434 1434 1434 1428 1428 1428 1434 1434 1434 1434 1440 1440 1446 1446 1452 1458 1458 1509 1509 1509 1509 1509 1509 1509 1502 1502 1502 1489 1483 1483 1483 1477 1477 1470 1470 1470 1464 1464 1458 1458 1452 1452 1452 1452 1446 1440 1440 1434 1434 1428 1428 1422 1416 1416 1410 1410 1410 1410 1404 1404 1404 1399 1393 1388 1388 1388 1382 1382 1382 1376 1376 1371 1366 1366 1366 1366 1366 1360 1360 1355 1355 1350 1344 1344 1339 1339 1334 1334 1329 1329 1324 1324 1319 1319 1319 1314 1314 1309 1304 1304 1299 1299 1299 1294 1294 1294 1289 1289 1289 1284 1284 1284 1275 1270 1275 1265 1265 1265 1265 1261 1261 1261 1261 1256 1247 1247 1247 1243 1243 1243 1243 1243 1243 1238 1238 1229 1229 1229 1216 1216 1212 1212 1208 1208 1208 1208 1204 1204 1195 1195 1195 1195 1195 1191 1191 1191 1187 1183 1183 1179 1179 1175 1171 1171 1167 1171 1171 0 0 0 0 0 0 0 0 0 0 0 0 0 0 0 0 0 0 0 0 0 0 0 0 0 0 0 0 0 0 0 0 0 0 0 0 0 0 0 0 0
    970 970 973 973 976 976 978 978 981 984 984 984 984 984 984 987 987 987 987 990 990 990 993 995 998 998 1001 1001 1001 1004 1004 1007 1010 1010 1013 1013 1013 1013 1013 1016 1019 1022 1022 1022 1025 1025 1025 1025 1025 1028 1028 1031 1034 1034 1034 1037 1037 1037 1040 1040 1044 1047 1047 1047 1050 1050 1050 1053 1053 1056 1060 1060 1060 1060 1060 1060 1060 1063 1063 1063 1066 1069 1069 1069 1073 1076 1076 1079 1079 1083 1083 1086 1086 1086 1086 1086 1090 1090 1093 1093 1097 1100 1100 1104 1104 1104 1107 1111 1111 1111 1111 1104 1100 1100 1100 1100 1104 1104 1104 1107 1111 1111 1114 1114 1118 1118 0 0 0 0 0 0 0 0 0 0 0 0 0 0 0 0 0 1931 1952 1952 1964 1952 1952 1952 1941 1941 1941 1941 1941 1931 1920 1899 1878 1868 1868 1868 1858 1858 1858 1858 1858 1858 1868 1868 1868 1878 1878 1878 1888 1899 1909 1931 1931 1941 1941 1931 1931 1920 1920 1909 1909 1899 1899 1888 1888 1888 1878 1878 1868 1868 1858 1858 1848 1838 1838 1828 1828 1828 1819 1819 1819 1819 1809 1809 1800 1800 1790 1790 1790 1790 1781 1781 1772 1763 1763 1754 1754 1754 1745 1745 1745 1736 1728 1728 1719 1719 1719 1711 1711 1711 1702 1694 1686 1686 1686 1677 1677 1677 1669 1669 1661 1661 1653 1645 1645 1645 1645 1638 1630 1630 1630 1622 1622 1622 1622 1615 1615 1458 1458 1458 1458 1452 1452 1446 1446 1440 1434 1434 1434 1434 1434 1428 1434 1440 1440 1440 1440 1446 1446 1452 1452 1452 1458 1502 1509 1509 1509 1509 1509 1509 1509 1502 1502 1502 1483 1477 1477 1477 1477 1470 1470 1470 1464 1464 1458 1458 1452 1452 1452 1452 1446 1446 1440 1434 1434 1428 1428 1422 1416 1416 1410 1410 1410 1410 1404 1404 1404 1399 1393 1388 1388 1382 1382 1382 1382 1376 1376 1371 1371 1366 1366 1366 1366 1360 1360 1355 1355 1350 1344 1344 1339 1339 1339 1334 1334 1329 1329 1324 1324 1319 1319 1319 1314 1309 1304 1304 1304 1299 1299 1294 1294 1289 1289 1284 1284 1284 1284 1280 1280 1275 1270 1265 1265 1265 1261 1265 1261 1261 1261 1256 1252 1247 1247 1247 1247 1243 1243 1243 1243 1238 1234 1229 1225 1225 1216 1212 1212 1212 1208 1208 1208 1208 1204 1204 1195 1195 1195 1195 1195 1195 1191 1191 1187 1183 1179 1179 1175 1175 1171 1171 1171 1171 1171 0 0 0 0 0 0 0 0 0 0 0 0 0 0 0 0 0 0 0 0 0 0 0 0 0 0 0 0 0 0 0 0 0 0 0 0 0 0 0 0 0
    970 970 973 973 976 976 976 978 978 981 981 981 984 984 984 984 987 987 987 990 990 993 993 995 995 998 998 1001 1001 1004 1007 1007 1010 1010 1013 1013 1013 1013 1016 1016 1022 1022 1025 1025 1025 1025 1025 1025 1028 1028 1031 1031 1034 1034 1034 1037 1037 1037 1040 1040 1044 1047 1047 1047 1050 1050 1050 1053 1053 1056 1056 1056 1060 1060 1060 1060 1060 1063 1063 1063 1063 1066 1069 1069 1073 1076 1076 1079 1083 1083 1083 1083 1083 1083 1086 1086 1090 1090 1090 1093 1097 1100 1100 1104 1104 1104 0 0 0 0 0 1097 1097 1097 1097 1100 1100 1104 1104 1104 1107 1111 1111 1114 1118 0 0 0 0 0 0 0 0 0 0 0 0 0 0 0 1920 1920 1920 1931 1941 1941 1941 1941 1941 1941 1941 1941 1941 1941 1941 1941 1931 1909 1888 1868 1868 1868 1858 1858 1858 1858 1858 1858 1868 1868 1868 1878 1878 1878 1888 1899 1909 1920 1931 1941 1941 1931 1931 1920 1909 1909 1909 1899 1899 1888 1888 1888 1878 1878 1868 1868 1858 1858 1848 1848 1838 1828 1828 1828 1819 1819 1819 1819 1809 1809 1809 1800 1800 1790 1790 1790 1781 1772 1772 1763 1763 1754 1754 1754 1745 1745 1745 1736 1728 1719 1719 1719 1719 1711 1711 1711 1702 1694 1686 1686 1686 1686 1677 1677 1669 1669 1669 1661 1653 1653 1645 1645 1645 1638 1638 1630 1630 1630 1622 1622 1615 1615 1615 1458 1458 1458 1452 1452 1446 1446 1440 1440 1434 1434 1434 1434 1434 1434 1434 1434 1434 1434 1440 1446 1446 1446 1452 1452 1458 1509 1509 1509 1509 1509 1509 1509 1509 1509 1502 1502 1483 1483 1483 1477 1477 1477 1470 1470 1464 1464 1458 1458 1452 1452 1452 1452 1446 1446 1440 1434 1434 1428 1428 1422 1416 1416 1410 1410 1410 1410 1404 1404 1404 1399 1393 1388 1388 1388 1382 1382 1382 1376 1376 1371 1371 1366 1366 1366 1360 1360 1360 1355 1355 1350 1344 1344 1339 1339 1339 1334 1329 1329 1329 1324 1324 1319 1319 1314 1314 1309 1309 1304 1304 1299 1299 1299 1299 1289 1289 1284 1284 1284 1284 1280 1280 1275 1270 1265 1265 1265 1265 1265 1265 1261 1261 1256 1252 1247 1247 1247 1247 1247 1243 1243 1243 1243 1234 1229 1229 1225 1216 1212 1212 1212 1208 1208 1208 1204 1204 1204 1204 1200 1195 1195 1195 1195 1191 1191 1187 1179 1179 1179 1175 1175 1175 1171 1171 1171 1171 0 0 0 0 0 0 0 0 0 0 0 0 0 0 0 0 0 0 0 0 0 0 0 0 0 0 0 0 0 0 0 0 0 0 0 0 0 0 0 0 0
    968 970 973 973 976 976 978 978 981 981 981 981 984 984 984 987 987 987 990 990 990 993 995 995 998 998 1001 1001 1001 1004 1004 1007 1010 1010 1010 1010 1013 1013 1016 1016 1019 1022 1022 1025 1025 1025 1025 1025 1028 1028 1031 1034 1034 1034 1034 1037 1037 1037 1040 1044 1047 1047 1047 1050 1050 1050 1050 1053 1053 1056 1056 1060 1060 1060 1060 1060 1060 1060 1060 1060 1063 1063 1066 1069 1076 1076 1076 1079 1079 1079 1079 1083 1083 1083 1083 1086 1086 0 0 0 0 0 0 0 0 0 0 0 0 0 0 0 1093 1093 1093 1097 1100 1104 1104 1104 1107 1107 1111 1114 1118 0 0 0 0 0 0 0 0 0 0 0 0 1931 1920 1920 1920 1931 1920 1931 1931 1941 1941 1941 1941 1941 1941 1941 1941 1941 1941 1941 1931 1909 1888 1868 1868 1868 1858 1858 1858 1858 1858 1858 1868 1868 1868 1878 1878 1878 1888 1899 1909 1920 1931 1931 1931 1931 1920 1920 1909 1909 1909 1899 1899 1899 1888 1888 1878 1878 1868 1868 1868 1858 1848 1848 1838 1828 1828 1828 1819 1819 1819 1819 1809 1809 1809 1800 1800 1790 1790 1790 1781 1772 1772 1763 1763 1754 1754 1754 1745 1745 1745 1736 1728 1719 1719 1719 1719 1711 1711 1711 1702 1694 1686 1686 1686 1677 1677 1677 1669 1669 1669 1661 1653 1653 1645 1645 1645 1638 1638 1630 1630 1630 1622 1615 1615 1615 1615 1458 1458 1458 1458 1452 1446 1446 1440 1440 1434 1434 1434 1434 1434 1434 1434 1434 1434 1434 1440 1440 1446 1446 1452 1452 1458 1509 1509 1509 1509 1509 1509 1509 1509 1509 1502 1502 1483 1483 1483 1477 1477 1470 1470 1470 1464 1458 1458 1458 1452 1452 1452 1452 1446 1446 1440 1434 1434 1428 1428 1422 1416 1410 1410 1410 1404 1404 1404 1404 1399 1399 1393 1388 1388 1388 1388 1382 1382 1376 1376 1371 1371 1366 1366 1360 1360 1360 1355 1355 1355 1350 1344 1344 1344 1339 1339 1334 1329 1329 1329 1324 1324 1319 1319 1314 1314 1309 1304 1304 1304 1299 1299 1299 1299 1294 1289 1289 1284 1284 1284 1280 1280 1275 1270 1267 1267 1265 1265 1265 1265 1261 1261 1256 1252 1252 1247 1247 1247 1247 1247 1243 1243 1243 1238 1229 1229 1225 1216 1212 1212 1212 1208 1208 1208 1204 1204 1204 1204 1200 1200 1195 1195 1195 1191 1187 1183 1179 1179 1179 1175 1175 1175 1175 1175 1175 1171 0 0 0 0 0 0 0 0 0 0 0 0 0 0 0 0 0 0 0 0 0 0 0 0 0 0 0 0 0 0 0 0 0 0 0 0 0 0 0 0 0
    968 970 970 973 976 976 976 976 978 978 981 981 984 987 987 987 987 990 990 990 993 993 998 998 998 1001 1001 1001 1001 1004 1007 1007 1007 1010 1010 1013 1013 1013 1016 1016 1022 1022 1022 1022 1025 1025 1025 1025 1028 1028 1031 1034 1034 1034 1034 1037 1037 1037 1040 1044 1047 1047 1047 1050 1050 1050 1050 1053 1056 1060 1060 1060 1060 1060 1060 1060 1060 1060 1063 0 0 0 0 1073 1073 1076 1076 1076 0 0 0 0 0 0 0 0 0 0 0 0 0 0 0 0 0 0 0 0 0 0 0 0 0 1093 1097 1097 1100 1100 1104 1104 1107 1111 1114 1114 1118 0 0 0 0 0 0 0 0 0 1920 1920 1909 1920 1920 1920 1920 1920 1920 1931 1931 1931 1931 1931 1931 1941 1941 1941 1941 1941 1941 1941 1931 1909 1888 1868 1868 1868 1858 1858 1858 1858 1858 1858 1868 1868 1868 1878 1878 1878 1888 1899 1909 1920 1931 1941 1931 1931 1920 1920 1909 1909 1909 1899 1899 1899 1888 1888 1878 1878 1868 1868 1868 1858 1858 1848 1838 1828 1828 1828 1819 1819 1819 1819 1809 1809 1809 1800 1800 1790 1790 1790 1781 1772 1772 1763 1754 1754 1754 1754 1745 1745 1745 1736 1728 1719 1719 1719 1711 1711 1711 1702 1702 1694 1686 1686 1686 1677 1677 1677 1669 1669 1669 1661 1653 1653 1645 1645 1645 1638 1638 1638 1630 1630 1622 1622 1615 1615 1615 1458 1458 1458 1452 1452 1446 1446 1440 1440 1434 1434 1434 1434 1434 1434 1434 1434 1434 1440 1440 1440 1440 1440 1446 1452 1452 1515 1509 1515 1509 1509 1509 1515 1509 1509 1502 1502 1483 1483 1483 1477 1477 1477 1470 1470 1464 1458 1458 1458 1452 1452 1452 1452 1446 1446 1440 1434 1434 1428 1428 1422 1422 1416 1416 1410 1410 1404 1404 1404 1399 1399 1393 1388 1388 1388 1388 1382 1382 1376 1376 1376 1371 1366 1366 1366 1360 1360 1355 1355 1350 1350 1344 1344 1344 1339 1339 1334 1334 1329 1329 1324 1324 1319 1319 1314 1314 1309 1309 1304 1304 1299 1299 1299 1299 1294 1289 1284 1284 1284 1284 1280 1280 1275 1270 1270 1270 1265 1265 1265 1265 1261 1261 1261 1256 1252 1252 1247 1247 1247 1247 1243 1243 1243 1234 1229 1229 1225 1216 1212 1212 1212 1208 1208 1208 1204 1204 1200 1200 1200 1195 1195 1191 1191 1187 1179 1179 1179 1175 1179 1175 1175 1175 1175 1175 1175 1175 0 0 0 0 0 0 0 0 0 0 0 0 0 0 0 0 0 0 0 0 0 0 0 0 0 0 0 0 0 0 0 0 0 0 0 0 0 0 0 0 0
    970 970 973 976 976 976 976 976 978 978 981 981 984 984 987 987 987 990 990 990 993 993 998 998 998 1001 1001 1001 1001 1004 1007 1007 1010 1010 1010 1013 1013 1013 1016 1016 1019 1022 1022 1022 1022 1025 1025 1028 1028 1028 1031 1034 1034 1034 1034 1037 1037 1040 1040 1047 1047 1050 1050 1050 1050 1050 1050 1053 0 0 1060 1060 1060 1060 1060 0 0 0 0 0 0 0 0 0 0 0 0 0 0 0 0 0 0 0 0 0 0 0 0 0 0 0 0 0 0 0 0 0 0 0 0 0 0 1095 1097 1100 1100 1100 1104 1104 1107 1107 1111 1114 1118 0 1878 1878 1878 1868 1878 1899 1899 1899 1899 1920 1909 1920 1909 1920 1920 1920 1920 1920 1920 1931 1931 1931 1941 1941 1941 1941 1941 1952 1941 1941 1941 1920 1878 1868 1868 1868 1858 1858 1858 1858 1858 1858 1868 1868 1868 1868 1878 1878 1888 1909 1920 1931 1931 1941 1931 1931 1931 1920 1909 1909 1909 1909 1899 1899 1888 1888 1878 1878 1868 1868 1868 1858 1858 1848 1838 1838 1828 1828 1819 1819 1819 1819 1809 1809 1809 1800 1800 1790 1790 1790 1781 1772 1772 1763 1754 1754 1754 1754 1745 1745 1736 1736 1728 1719 1719 1719 1719 1711 1711 1702 1702 1694 1686 1686 1686 1677 1677 1677 1669 1669 1661 1661 1653 1653 1645 1645 1645 1638 1638 1630 1630 1622 1622 1622 1615 1615 1615 1458 1458 1458 1452 1452 1446 1446 1440 1440 1434 1434 1434 1434 1434 1434 1434 1434 1434 1434 1434 1440 1440 1440 1440 1452 1458 1515 1509 1515 1509 1509 1509 1509 1509 1509 1502 1502 1483 1483 1477 1477 1477 1477 1470 1470 1464 1458 1458 1452 1452 1452 1452 1446 1446 1440 1440 1434 1434 1428 1428 1422 1422 1416 1416 1410 1410 1404 1404 1404 1404 1399 1393 1393 1388 1388 1388 1382 1382 1382 1376 1376 1371 1366 1366 1366 1360 1360 1355 1355 1350 1350 1344 1344 1344 1339 1339 1334 1334 1329 1329 1324 1324 1319 1319 1314 1314 1309 1309 1304 1304 1299 1299 1299 1299 1294 1289 1289 1284 1284 1284 1280 1280 1275 1275 1270 1270 1265 1265 1265 1265 1261 1261 1261 1256 1252 1252 1247 1247 1247 1247 1243 1243 1243 1234 1229 1225 1225 1216 1212 1212 1212 1208 1208 1204 1204 1200 1200 1200 1200 1195 1195 1191 1195 1187 1179 1183 1179 1175 1179 1179 1175 1175 1175 1175 1175 1175 0 0 0 0 0 0 0 0 0 0 0 0 0 0 0 0 0 0 0 0 0 0 0 0 0 0 0 0 0 0 0 0 0 0 0 0 0 0 0 0 0
    968 968 970 973 976 976 976 976 978 978 981 981 984 984 987 987 990 990 990 990 993 995 998 998 998 1001 1001 1004 1004 1007 1007 1010 1010 1010 1010 1013 1013 1013 1013 1016 1016 1019 1022 1022 1022 1022 1025 1025 1028 1028 1031 1031 1034 1034 1034 1037 1037 1040 1040 1047 1047 1047 1047 1050 1050 1047 0 0 0 0 0 0 0 0 0 0 0 0 0 0 0 0 0 0 0 0 0 0 0 0 0 0 0 0 0 0 0 0 0 0 0 0 0 0 0 0 0 0 0 0 0 0 0 1097 1100 1100 1100 1100 1104 1104 1107 1111 1114 1114 1118 0 1878 1878 1878 1878 1878 1899 1899 1899 1899 1909 1920 1909 1909 1909 1909 1920 1920 1920 1931 1931 1931 1931 1941 1941 1941 1941 1952 1952 1941 1941 1931 1920 1888 1878 1868 1868 1858 1858 1858 1858 1858 1858 1858 1868 1868 1868 1868 1878 1878 1899 1920 1931 1941 1941 1941 1931 1931 1920 1909 1909 1909 1909 1899 1899 1888 1888 1878 1868 1868 1868 1868 1858 1858 1848 1838 1838 1828 1828 1819 1819 1819 1819 1809 1809 1800 1800 1790 1790 1790 1790 1781 1772 1772 1763 1754 1754 1754 1745 1745 1745 1736 1736 1719 1719 1719 1711 1711 1711 1711 1702 1702 1694 1686 1686 1686 1686 1677 1677 1669 1669 1669 1661 1653 1653 1645 1645 1645 1638 1638 1630 1630 1622 1622 1622 1622 1615 1615 1458 1458 1458 1452 1452 1446 1446 1446 1440 1434 1434 1434 1434 1434 1434 1434 1434 1434 1434 1440 1440 1440 1440 1440 1434 1458 1515 1515 1515 1509 1509 1509 1509 1509 1502 1502 1489 1483 1483 1483 1477 1477 1477 1470 1470 1464 1464 1458 1452 1452 1452 1452 1452 1446 1446 1440 1434 1434 1428 1428 1422 1422 1416 1416 1410 1410 1404 1404 1404 1404 1399 1393 1388 1388 1382 1382 1382 1382 1376 1376 1376 1371 1366 1366 1366 1360 1355 1355 1350 1350 1344 1344 1339 1339 1339 1334 1334 1329 1329 1324 1324 1324 1319 1319 1314 1314 1309 1309 1304 1304 1304 1299 1299 1299 1294 1289 1289 1289 1284 1284 1280 1280 1280 1275 1275 1270 1265 1265 1265 1265 1261 1261 1261 1256 1252 1252 1252 1247 1247 1247 1243 1243 1243 1238 1234 1225 1225 1216 1216 1212 1212 1208 1208 1204 1200 1200 1200 1200 1195 1195 1195 1191 1195 1183 1179 1179 1179 1179 1179 1171 1175 1175 1175 1171 1171 1171 0 0 0 0 0 0 0 0 0 0 0 0 0 0 0 0 0 0 0 0 0 0 0 0 0 0 0 0 0 0 0 0 0 0 0 0 0 0 0 0 0
    968 970 970 973 976 973 976 976 978 978 981 981 981 984 984 987 987 990 990 990 993 995 998 998 998 1001 1001 1004 1004 1007 1007 1007 1007 1010 1010 1010 1013 1013 1013 1013 1016 1019 1019 1022 1022 1022 1025 1025 1028 1028 1028 1031 1031 1034 1034 1034 1037 1040 1044 0 0 0 0 0 0 0 0 0 0 0 0 0 0 0 0 0 0 0 0 0 0 0 0 0 0 0 0 0 0 0 0 0 0 0 0 0 0 0 0 0 0 0 0 0 0 0 1819 1828 1828 1828 1828 0 0 1100 1100 1100 1100 1104 1104 1104 1107 1107 1111 1114 1118 1868 1868 1868 1868 1868 1878 1888 1888 1888 1899 1899 1909 1909 1909 1909 1909 1909 1920 1920 1920 1920 1931 1931 1931 1931 1941 1941 1941 1941 1941 1941 1931 1909 1888 1878 1868 1868 1868 1868 1858 1858 1858 1858 1868 1868 1868 1868 1868 1878 1878 1899 1920 1931 1941 1941 1941 1931 1931 1920 1909 1909 1909 1909 1899 1899 1888 1878 1878 1868 1868 1868 1868 1858 1858 1858 1848 1838 1828 1828 1819 1819 1819 1819 1809 1809 1800 1800 1790 1790 1790 1790 1781 1772 1772 1763 1754 1754 1745 1745 1745 1736 1736 1736 1719 1719 1719 1719 1711 1711 1711 1702 1702 1694 1686 1686 1686 1677 1677 1677 1669 1669 1661 1661 1653 1653 1645 1645 1645 1645 1638 1630 1630 1630 1622 1622 1622 1622 1622 1458 1458 1458 1458 1452 1446 1446 1440 1434 1434 1434 1434 1434 1434 1434 1434 1434 1434 1434 1434 1440 1440 1434 1434 1434 1434 1515 1515 1515 1509 1509 1509 1509 1509 1502 1496 1489 1483 1483 1483 1477 1477 1477 1470 1470 1464 1464 1458 1452 1452 1452 1452 1446 1446 1446 1440 1434 1434 1428 1428 1428 1422 1422 1416 1410 1410 1410 1404 1404 1404 1393 1393 1388 1388 1382 1382 1382 1382 1376 1376 1376 1371 1366 1366 1360 1360 1355 1355 1350 1350 1344 1344 1339 1339 1339 1334 1334 1329 1329 1324 1324 1319 1319 1319 1314 1314 1309 1304 1304 1304 1299 1299 1299 1299 1294 1294 1289 1289 1284 1284 1280 1280 1280 1275 1275 1270 1267 1265 1265 1265 1261 1261 1261 1256 1256 1252 1252 1247 1247 1243 1243 1243 1243 1238 1234 1229 1225 1216 1216 1212 1212 1208 1208 1204 1204 1200 1200 1200 1200 1195 1195 1195 1195 1183 1179 1179 1179 1179 1175 1175 1175 1175 1175 1171 1171 1171 0 0 0 0 0 0 0 0 0 0 0 0 0 0 0 0 0 0 0 0 0 0 0 0 0 0 0 0 0 0 0 0 0 0 0 0 0 0 0 0 0
    973 973 973 973 976 976 976 976 978 978 981 981 984 984 987 987 990 990 990 990 993 993 998 998 1001 1001 1001 1004 1004 1004 1007 1007 1007 1007 1010 1010 1013 1013 1013 1013 1016 1019 1019 1022 1022 1022 1022 1025 1025 1025 1028 1031 1031 1031 1034 0 0 0 0 0 0 0 0 0 0 0 0 0 0 0 0 0 0 0 0 0 0 0 0 0 0 0 0 0 0 0 0 0 0 0 0 0 1772 1772 1781 1790 1800 1800 1790 1790 1800 1809 1809 1819 1828 1819 1828 1828 1828 1828 1828 1828 1828 1097 1100 1100 1100 1100 1104 1104 1107 1111 1114 1114 1118 1868 1868 1868 1868 1878 1888 1899 1899 1899 1899 1899 1909 1909 1909 1909 1909 1920 1920 1920 1920 1931 1931 1931 1931 1931 1931 1941 1941 1941 1941 1941 1931 1909 1888 1878 1868 1868 1868 1858 1858 1858 1858 1858 1858 1868 1868 1868 1868 1878 1888 1909 1920 1931 1931 1941 1931 1931 1931 1920 1920 1909 1909 1909 1899 1899 1888 1888 1878 1878 1868 1868 1868 1858 1858 1848 1848 1838 1828 1828 1819 1819 1819 1819 1809 1809 1800 1790 1790 1790 1790 1781 1781 1772 1772 1763 1754 1754 1745 1745 1745 1745 1736 1736 1719 1719 1719 1711 1711 1711 1711 1702 1702 1694 1686 1686 1686 1686 1677 1677 1669 1669 1661 1661 1653 1653 1653 1645 1645 1645 1638 1630 1630 1622 1622 1622 1615 1615 1615 1458 1458 1458 1452 1452 1446 1446 1434 1434 1434 1428 1428 1428 1428 1434 1434 1434 1434 1434 1434 1440 1440 1440 1434 1434 1434 1515 1515 1515 1509 1509 1509 1509 1502 1496 1489 1483 1483 1483 1483 1477 1477 1470 1470 1464 1464 1458 1458 1452 1452 1452 1452 1446 1446 1446 1440 1440 1434 1434 1428 1428 1422 1422 1416 1410 1410 1410 1404 1404 1399 1393 1393 1388 1388 1388 1388 1382 1382 1382 1376 1376 1371 1366 1360 1360 1355 1355 1355 1350 1350 1344 1344 1344 1339 1339 1334 1329 1329 1329 1324 1324 1319 1319 1314 1314 1314 1309 1309 1304 1304 1299 1299 1299 1299 1294 1294 1289 1289 1284 1284 1280 1280 1280 1275 1275 1270 1270 1265 1265 1265 1265 1261 1261 1256 1252 1252 1252 1247 1247 1243 1243 1243 1238 1238 1234 1229 1225 1225 1216 1212 1208 1208 1208 1204 1200 1195 1200 1200 1200 1195 1195 1191 1191 1183 1179 1179 1183 1179 1179 1175 1175 1175 1175 1171 1171 1171 0 0 0 0 0 0 0 0 0 0 0 0 0 0 0 0 0 0 0 0 0 0 0 0 0 0 0 0 0 0 0 0 0 0 0 0 0 0 0 0 0
    970 973 973 973 976 976 976 976 978 981 981 981 984 984 987 987 990 990 990 990 990 993 998 998 1001 1004 1004 1004 1004 1004 1007 1007 1007 1004 1010 1010 1013 1010 1013 1013 1013 1019 0 0 0 0 0 0 0 0 0 0 0 0 0 0 0 0 0 0 0 0 0 0 0 0 0 0 0 0 0 0 0 0 0 0 0 0 0 0 0 1745 0 0 0 0 0 0 1754 1754 1763 1763 1772 1781 1781 1790 1790 1790 1809 1800 1809 1809 1809 1819 1819 1828 1828 1828 1828 1828 1828 1828 1828 1104 1100 1100 1100 1100 1104 1104 1107 1111 1114 1114 1118 1868 1868 1878 1878 1878 1888 1888 1899 1899 1899 1899 1899 1909 1909 1909 1909 1920 1920 1920 1931 1931 1931 1931 1931 1931 1941 1941 1941 1941 1941 1941 1931 1909 1878 1878 1868 1868 1868 1858 1858 1858 1858 1858 1858 1868 1868 1868 1868 1878 1888 1909 1920 1931 1941 1941 1941 1931 1931 1931 1920 1920 1909 1909 1899 1899 1888 1888 1878 1878 1868 1868 1868 1858 1848 1848 1838 1828 1828 1828 1819 1819 1819 1819 1809 1809 1800 1790 1790 1790 1790 1781 1781 1772 1772 1763 1754 1754 1745 1745 1745 1745 1736 1736 1719 1719 1719 1711 1711 1711 1711 1702 1702 1694 1686 1686 1686 1686 1677 1677 1677 1669 1661 1661 1653 1653 1645 1645 1645 1645 1638 1630 1622 1622 1615 1615 1615 1615 1615 1458 1458 1458 1458 1452 1452 1446 1440 1434 1434 1428 1428 1428 1434 1434 1434 1434 1434 1434 1434 1440 1440 1440 1440 1434 1434 1515 1515 1515 1509 1509 1509 1502 1502 1489 1489 1483 1483 1483 1477 1477 1477 1470 1470 1464 1464 1458 1458 1458 1452 1452 1452 1452 1446 1446 1440 1434 1434 1434 1428 1428 1428 1422 1422 1410 1410 1410 1404 1404 1399 1393 1388 1388 1388 1388 1388 1388 1382 1382 1382 1376 1371 1366 1366 1360 1360 1355 1355 1350 1350 1344 1344 1344 1344 1339 1334 1334 1329 1329 1324 1324 1319 1319 1319 1314 1314 1309 1309 1304 1304 1304 1299 1299 1299 1294 1294 1289 1289 1284 1280 1280 1280 1280 1275 1275 1275 1270 1265 1265 1265 1265 1261 1261 1256 1252 1252 1247 1247 1247 1243 1243 1243 1243 1238 1238 1234 1225 1225 1216 1212 1212 1208 1204 1200 1195 1195 1195 1200 1195 1195 1195 1191 1191 1187 1179 1179 1183 1179 1175 1175 1175 1175 1171 1171 1171 1171 0 0 0 0 0 0 0 0 0 0 0 0 0 0 0 0 0 0 0 0 0 0 0 0 0 0 0 0 0 0 0 0 0 0 0 0 0 0 0 0 0
    970 970 973 973 976 976 976 976 978 981 981 981 984 984 984 987 987 987 990 990 990 993 998 998 1001 1001 1001 1001 1004 1004 1004 1007 1004 1004 1010 1010 1010 1013 1010 1013 0 0 0 0 0 0 0 0 0 0 0 0 0 0 0 0 0 0 0 0 0 0 0 0 0 0 0 0 1736 1736 0 0 0 0 0 1745 1745 1745 0 1754 1754 1749 1754 1754 1754 1754 1754 1754 1763 1763 1763 1772 1772 1781 1781 1790 1790 1790 1800 1800 1800 1809 1809 1819 1819 1819 1819 1819 1828 1828 1828 1828 1828 1100 1100 1100 1100 1100 1104 1104 1107 1111 1114 1114 1118 1868 1868 1878 1878 1878 1888 1888 1899 1899 1899 1899 1899 1899 1899 1909 1909 1909 1909 1920 1931 1931 1931 1931 1941 1941 1941 1941 1941 1941 1941 1941 1941 1931 1878 1878 1868 1868 1868 1858 1858 1858 1858 1858 1858 1868 1868 1868 1868 1878 1878 1899 1931 1931 1941 1941 1941 1931 1931 1931 1920 1920 1909 1909 1899 1888 1888 1888 1878 1878 1868 1868 1868 1858 1848 1848 1838 1838 1828 1828 1819 1819 1819 1819 1809 1809 1800 1790 1790 1790 1790 1781 1781 1772 1772 1763 1754 1754 1745 1745 1745 1745 1736 1736 1719 1719 1711 1711 1711 1711 1702 1702 1694 1694 1686 1686 1686 1686 1677 1677 1669 1669 1661 1653 1653 1653 1645 1645 1645 1638 1630 1622 1622 1622 1615 1615 1615 1615 1622 1458 1458 1458 1458 1452 1452 1446 1434 1434 1428 1428 1428 1428 1434 1434 1434 1434 1434 1434 1440 1440 1440 1440 1440 1440 1440 1509 1509 1509 1509 1509 1509 1502 1502 1489 1489 1483 1483 1483 1477 1477 1477 1470 1470 1470 1464 1458 1458 1452 1452 1452 1452 1446 1446 1440 1434 1434 1434 1434 1428 1428 1428 1422 1422 1416 1410 1410 1404 1404 1399 1393 1388 1388 1388 1388 1388 1382 1382 1382 1376 1376 1371 1366 1366 1360 1360 1355 1355 1350 1350 1350 1344 1344 1344 1339 1334 1329 1329 1329 1324 1324 1319 1319 1319 1314 1314 1309 1309 1309 1304 1304 1304 1299 1299 1294 1294 1289 1284 1284 1280 1280 1275 1275 1275 1275 1270 1270 1265 1265 1265 1261 1261 1261 1256 1252 1247 1247 1247 1243 1243 1243 1243 1238 1238 1238 1234 1225 1225 1221 1216 1212 1208 1208 1200 1195 1195 1200 1195 1195 1195 1191 1191 1191 1187 1179 1179 1183 1179 1175 1175 1175 1175 1171 1167 1167 1167 0 0 0 0 0 0 0 0 0 0 0 0 0 0 0 0 0 0 0 0 0 0 0 0 0 0 0 0 0 0 0 0 0 0 0 0 0 0 0 0 0
    968 970 970 973 973 976 976 976 978 978 978 981 981 984 984 987 987 987 990 990 990 993 998 1001 1001 1001 1001 1004 1004 1004 1004 1007 1004 1004 1010 0 0 0 0 0 0 0 0 0 0 0 0 0 0 0 0 0 0 0 0 0 0 0 0 0 0 0 0 0 0 0 1719 1728 1728 1728 1728 1728 1736 1736 1736 1745 1745 1749 1754 1754 1754 1754 1754 1754 1754 1754 1754 1754 1763 1763 1763 1772 1772 1781 1781 1790 1790 1790 1800 1800 1809 1809 1809 1809 1819 1819 1819 1819 1828 1828 1828 1828 1828 1100 1100 1100 1100 1100 1104 1104 1107 1111 1114 1114 1118 1868 1868 1878 1878 1878 1888 1888 1899 1899 1899 1899 1899 1899 1909 1909 1909 1909 1920 1920 1931 1931 1941 1941 1941 1941 1941 1941 1941 1941 1941 1941 1941 1931 1888 1878 1868 1868 1858 1858 1858 1858 1858 1858 1858 1868 1868 1868 1868 1878 1878 1909 1931 1931 1941 1941 1941 1931 1931 1931 1920 1920 1920 1909 1899 1899 1888 1888 1888 1878 1868 1868 1868 1858 1848 1848 1838 1828 1828 1828 1819 1819 1819 1819 1809 1809 1800 1790 1790 1790 1790 1781 1781 1772 1772 1763 1754 1754 1745 1745 1745 1745 1736 1736 1719 1719 1719 1711 1711 1711 1711 1702 1702 1694 1686 1686 1686 1686 1677 1677 1669 1669 1661 1653 1653 1653 1645 1645 1645 1638 1630 1622 1622 1622 1615 1615 1615 1615 1622 1458 1458 1458 1452 1452 1452 1446 1440 1434 1428 1428 1428 1428 1434 1434 1434 1434 1434 1434 1434 1434 1440 1446 1446 1446 1458 1509 1509 1509 1509 1509 1509 1502 1502 1496 1489 1489 1483 1483 1483 1477 1477 1477 1470 1470 1464 1458 1458 1452 1452 1452 1452 1446 1440 1440 1434 1434 1434 1428 1428 1428 1428 1422 1416 1410 1410 1410 1404 1404 1399 1393 1388 1388 1388 1388 1382 1382 1382 1376 1376 1376 1371 1366 1360 1360 1360 1355 1355 1350 1350 1350 1350 1344 1344 1339 1334 1329 1329 1329 1324 1324 1319 1319 1319 1314 1314 1309 1309 1304 1304 1304 1299 1299 1299 1294 1294 1289 1284 1284 1280 1280 1275 1275 1275 1275 1270 1265 1265 1265 1265 1265 1261 1261 1256 1252 1252 1247 1247 1243 1243 1243 1243 1238 1238 1238 1234 1225 1225 1221 1212 1212 1208 1208 1200 1195 1195 1195 1191 1191 1191 1191 1191 1191 1187 1183 1183 1183 1179 1175 1175 1175 1175 1171 1167 1167 1167 0 0 0 0 0 0 0 0 0 0 0 0 0 0 0 0 0 0 0 0 0 0 0 0 0 0 0 0 0 0 0 0 0 0 0 0 0 0 0 0 0
    968 970 970 970 973 976 976 976 978 978 978 981 981 981 984 987 987 987 990 990 990 993 998 998 1001 1001 1004 1004 1004 0 0 0 0 0 0 0 0 0 0 0 0 0 0 0 0 0 0 0 0 0 0 0 0 0 0 0 0 0 0 1702 1711 1711 1711 1719 1719 1719 1719 1728 1719 1728 1728 1728 1728 1736 1736 1745 1745 1754 1754 1754 1754 1754 1754 1754 1754 1754 1754 1763 1763 1763 1772 1772 1781 1781 1781 1790 1790 1790 1800 1800 1800 1809 1809 1819 1819 1819 1819 1819 1828 1828 1828 1828 1828 1100 1100 1097 1100 1100 1104 1104 1107 1111 1114 1114 1122 1125 1868 1878 1878 1878 1888 1888 1888 1899 1899 1899 1899 1899 1899 1909 1909 1909 1909 1920 1931 1931 1931 1931 1931 1941 1941 1941 1941 1941 1941 1941 1941 1931 1888 1878 1868 1868 1858 1858 1858 1858 1858 1858 1858 1868 1868 1868 1868 1878 1888 1899 1920 1931 1931 1941 1931 1931 1931 1920 1920 1909 1909 1909 1899 1899 1888 1888 1888 1878 1878 1868 1868 1858 1848 1848 1848 1838 1828 1828 1819 1819 1819 1819 1809 1809 1800 1790 1790 1790 1781 1781 1781 1772 1772 1763 1754 1754 1745 1745 1745 1736 1736 1728 1719 1719 1719 1711 1711 1711 1702 1702 1694 1694 1686 1686 1686 1677 1677 1677 1669 1669 1661 1653 1653 1653 1653 1645 1645 1645 1638 1630 1622 1622 1615 1615 1615 1622 1622 1458 1458 1458 1458 1452 1452 1446 1446 1434 1440 1428 1428 1428 1428 1434 1434 1434 1434 1434 1434 1434 1434 1446 1446 1440 1458 1509 1509 1509 1509 1509 1509 1502 1496 1489 1489 1489 1483 1483 1483 1477 1477 1477 1470 1470 1464 1458 1458 1458 1452 1452 1452 1446 1446 1440 1434 1434 1434 1428 1428 1428 1422 1422 1416 1410 1410 1410 1404 1404 1399 1393 1388 1388 1388 1382 1382 1382 1382 1376 1376 1371 1371 1366 1360 1360 1360 1355 1355 1355 1350 1350 1350 1344 1344 1339 1334 1329 1329 1324 1324 1324 1319 1319 1319 1319 1314 1314 1309 1309 1304 1304 1304 1299 1299 1294 1294 1289 1289 1284 1280 1280 1275 1275 1270 1270 1270 1265 1265 1265 1265 1265 1261 1261 1252 1252 1252 1247 1247 1243 1243 1243 1243 1238 1238 1238 1234 1225 1229 1216 1212 1212 1208 1208 1204 1200 1195 1195 1195 1195 1191 1191 1191 1191 1187 1183 1183 1179 1179 1179 1175 1175 1175 1171 1167 1167 1167 0 0 0 0 0 0 0 0 0 0 0 0 0 0 0 0 0 0 0 0 0 0 0 0 0 0 0 0 0 0 0 0 0 0 0 0 0 0 0 0 0</data></depth>
</opencv_storage>
