<?xml version="1.0"?>
<opencv_storage>
<depth type_id="opencv-matrix">
  <rows>42</rows>
  <cols>480</cols>
  <dt>w</dt>
  <data>
    1304 1299 1299 1304 1294 1304 1294 1289 1289 1289 1289 1289 1289 1284 1284 1284 1284 1284 1284 1284 1284 1284 1284 1284 1284 1280 1280 1275 1275 1270 1270 1270 1270 1270 1270 1270 1270 1270 1265 1265 1265 1265 1261 1256 1256 1261 1261 1265 1265 1261 1261 1261 1261 1256 1252 1252 1247 1247 1247 1243 1243 1243 1243 1243 1243 1243 1243 1238 1238 1238 1234 1234 1234 1234 1234 1234 1234 1234 1229 1229 1229 1229 1229 1229 1229 1229 1229 1229 1229 1229 1229 1225 1221 1221 1216 1216 1216 1216 1216 1212 1216 1216 1212 1212 1212 1212 1212 1212 1212 1212 1208 1208 1204 1204 1200 1200 1200 1200 1200 1200 1200 1200 1200 1195 1195 1195 1195 1195 1191 1191 1191 1187 1191 1187 1187 1183 1183 1183 1183 1183 1183 1031 1031 1034 1031 1031 1031 1031 1031 1031 1031 1031 1034 0 0 0 0 0 1167 1167 1167 1167 1171 1171 863 866 866 866 863 863 863 863 863 863 863 863 866 866 868 868 870 870 1151 1148 1148 1151 1151 1151 1148 1148 1148 1148 1144 1144 1144 1140 1140 1140 1140 1140 1140 1140 1136 1136 1136 1136 1136 1136 1136 1133 1133 1133 1133 1133 1133 1133 1133 1129 1129 1125 1122 1122 1122 1122 1118 1118 1071 1024 976 978 978 978 978 978 978 978 978 978 978 978 978 978 984 981 1107 1107 1107 1104 1104 1104 1104 1104 1104 1104 1100 1100 1100 1100 1097 1100 1097 1097 1097 1097 1093 1093 1093 1093 1090 1090 1086 1086 1083 1086 1083 1083 1083 1083 1083 1083 1083 1083 1079 1079 1079 1079 1076 1076 1076 1076 1076 1076 1076 1076 1076 1073 1073 1073 1073 1073 1069 1069 1069 1066 1066 1066 1066 1066 1066 1066 1066 1063 1063 1063 1060 1060 1060 1060 1056 1053 1053 1053 1053 1053 1053 1053 1053 1053 1053 1050 1050 1050 1050 1050 1050 1050 1047 1047 1047 1047 1044 1044 1044 1040 1040 1040 1040 1037 1037 1037 1037 1037 1037 1037 1034 1034 1034 1034 1034 1031 1031 1031 1031 1031 1028 1028 1025 1028 1028 1028 1028 1028 1028 1028 1028 1025 1025 1025 1025 1025 1025 1022 1025 1022 1022 1019 1019 1019 1019 1016 1016 1016 1016 1016 1016 1016 1016 1016 1013 1013 1013 1013 1013 1013 1010 1010 1007 1007 1004 1004 1007 1004 1007 1007 1007 1004 1004 1004 1004 1004 1001 1001 1001 998 998 1001 1001 1001 995 995 998 998 998 995 993 993 993 993 993 991 993 991 0 0 0 0 0 0 0 0 0 0 0 0 0 0 0 0 0 0 0 0 0 0 0 0 0 0 0 0 0 0 0 0 0 0 0 0 0 0
    1299 1299 1299 1294 1294 1294 1294 1289 1289 1289 1289 1289 1284 1284 1284 1284 1284 1284 1284 1284 1284 1284 1284 1284 1284 1280 1275 1275 1270 1270 1270 1270 1270 1270 1270 1275 1270 1270 1265 1265 1265 1265 1261 1261 1261 1261 1261 1265 1261 1261 1261 1261 1256 1252 1252 1247 1247 1247 1247 1243 1243 1243 1243 1243 1243 1243 1238 1238 1238 1238 1234 1234 1234 1234 1234 1234 1234 1234 1229 1229 1229 1229 1229 1229 1229 1229 1225 1225 1225 1225 1225 1221 1221 1221 1216 1216 1216 1216 1216 1216 1216 1216 1216 1216 1216 1212 1212 1212 1212 1208 1204 1204 1204 1200 1200 1200 1195 1195 1195 1200 1200 1200 1200 1195 1195 1195 1195 1195 1195 1191 1191 1187 1187 1187 1183 1183 1183 1183 1183 1183 1183 1031 1031 1031 1031 1031 1031 1031 1031 1031 1031 1034 1034 1034 0 0 0 0 1167 1167 1167 1167 1167 1167 863 866 866 863 863 863 863 863 863 861 861 863 863 866 866 868 868 870 1149 1148 1148 1151 1151 1148 1148 1148 1148 1148 1148 1144 1144 1144 1140 1144 1140 1140 1140 1140 1136 1136 1136 1136 1136 1136 1136 1133 1133 1133 1133 1133 1133 1133 1133 1133 1129 1129 1125 1122 1122 1122 1118 1118 1118 1071 976 978 978 978 978 978 978 978 976 978 978 978 978 981 984 981 1104 1107 1107 1107 1104 1104 1104 1104 1104 1104 1100 1100 1100 1097 1097 1097 1097 1097 1097 1097 1093 1093 1093 1093 1090 1090 1090 1086 1083 1083 1083 1083 1083 1083 1083 1083 1083 1083 1079 1079 1079 1079 1076 1076 1076 1076 1076 1076 1076 1076 1076 1073 1073 1073 1069 1069 1069 1069 1069 1066 1066 1066 1066 1066 1066 1066 1066 1063 1063 1063 1060 1060 1060 1060 1056 1053 1053 1053 1053 1053 1053 1053 1053 1053 1053 1053 1053 1050 1050 1050 1050 1050 1050 1047 1050 1047 1047 1044 1044 1040 1040 1040 1040 1037 1037 1037 1037 1037 1037 1037 1037 1037 1034 1034 1034 1031 1031 1031 1031 1031 1031 1028 1028 1028 1028 1028 1028 1028 1028 1028 1028 1028 1025 1025 1025 1025 1025 1025 1025 1022 1022 1022 1019 1022 1019 1016 1016 1016 1016 1016 1013 1013 1016 1013 1013 1013 1013 1013 1013 1010 1010 1007 1007 1007 1004 1004 1004 1004 1007 1007 1007 1004 1004 1004 1004 1004 1001 1001 1001 1001 998 998 995 995 995 995 998 998 998 995 995 995 993 993 993 993 993 993 0 0 0 0 0 0 0 0 0 0 0 0 0 0 0 0 0 0 0 0 0 0 0 0 0 0 0 0 0 0 0 0 0 0 0 0 0 0
    1299 1299 1294 1294 1289 1294 1294 1289 1289 1289 1289 1289 1289 1289 1284 1284 1284 1284 1284 1284 1284 1284 1284 1284 1280 1280 1280 1275 1275 1275 1270 1275 1270 1270 1270 1270 1270 1270 1265 1265 1265 1265 1261 1256 1256 1261 1261 1265 1265 1265 1261 1261 1256 1256 1252 1252 1247 1247 1247 1247 1247 1243 1243 1243 1243 1243 1238 1238 1238 1234 1234 1234 1234 1234 1234 1234 1234 1229 1229 1229 1229 1229 1229 1229 1229 1229 1225 1225 1225 1225 1225 1225 1221 1221 1221 1216 1216 1216 1216 1216 1216 1216 1216 1216 1216 1212 1212 1212 1212 1212 1204 1204 1204 1200 1200 1200 1200 1195 1200 1200 1200 1200 1200 1195 1195 1195 1195 1195 1195 1191 1191 1187 1187 1187 1183 1183 1183 1183 1183 1183 1183 1031 1031 1031 1031 1031 1031 1031 1031 1031 1031 1034 1034 1037 0 0 0 0 0 1167 1167 1167 1167 1167 866 866 866 863 863 863 863 863 861 861 861 863 866 866 866 868 867 868 1148 1151 1151 1151 1151 1148 1148 1148 1148 1148 1144 1144 1144 1144 1144 1144 1144 1140 1140 1140 1136 1136 1136 1136 1136 1136 1133 1133 1133 1133 1133 1133 1133 1133 1133 1133 1133 1129 1125 1125 1122 1118 1118 1118 1118 1118 1022 978 978 978 978 978 976 976 976 976 978 978 978 981 981 981 1104 1104 1104 1104 1104 1104 1104 1104 1104 1104 1104 1100 1100 1100 1097 1097 1097 1097 1097 1093 1093 1093 1093 1090 1090 1090 1090 1086 1083 1083 1083 1083 1083 1083 1083 1083 1083 1083 1079 1079 1079 1079 1076 1076 1076 1076 1076 1076 1076 1073 1073 1073 1069 1069 1069 1066 1069 1069 1069 1066 1066 1066 1066 1066 1063 1066 1066 1063 1063 1063 1060 1060 1060 1060 1056 1053 1053 1053 1053 1053 1053 1053 1053 1053 1053 1053 1050 1050 1050 1050 1050 1050 1050 1050 1050 1047 1047 1047 1044 1040 1040 1037 1037 1037 1037 1040 1037 1040 1037 1037 1037 1037 1037 1034 1034 1034 1031 1031 1031 1031 1031 1028 1028 1028 1028 1028 1028 1028 1028 1028 1028 1025 1025 1025 1025 1025 1025 1025 1025 1022 1022 1022 1019 1022 1019 1019 1016 1016 1016 1016 1016 1013 1013 1013 1013 1013 1013 1013 1010 1010 1007 1007 1007 1007 1004 1004 1004 1004 1007 1007 1004 1004 1004 1004 1004 1004 1001 1001 1001 1001 998 998 995 995 995 995 998 998 998 995 995 993 995 993 993 993 993 993 0 0 0 0 0 0 0 0 0 0 0 0 0 0 0 0 0 0 0 0 0 0 0 0 0 0 0 0 0 0 0 0 0 0 0 0 0 0
    1299 1304 1299 1299 1294 1294 1294 1294 1289 1289 1289 1289 1289 1289 1289 1289 1289 1289 1289 1289 1284 1284 1284 1284 1284 1280 1280 1275 1275 1270 1270 1275 1270 1270 1270 1275 1270 1270 1265 1265 1265 1261 1261 1256 1256 1256 1261 1261 1261 1261 1261 1256 1252 1252 1252 1247 1247 1247 1247 1247 1247 1247 1247 1247 1247 1243 1243 1243 1238 1238 1234 1234 1234 1234 1234 1234 1234 1234 1234 1229 1229 1229 1229 1229 1229 1229 1225 1225 1225 1225 1225 1225 1221 1221 1221 1216 1216 1216 1216 1212 1216 1216 1216 1216 1216 1212 1212 1212 1212 1208 1208 1204 1204 1204 1204 1200 1200 1200 1200 1200 1200 1200 1200 1195 1195 1195 1195 1195 1191 1191 1191 1187 1187 1187 1183 1183 1183 1183 1183 1183 1183 1031 1034 1034 1031 1034 1034 1034 1034 1031 1034 1034 1037 1037 0 0 0 0 0 0 1163 1167 1167 1171 868 866 866 863 863 863 863 861 861 861 861 861 863 863 866 866 866 0 1151 1151 1151 1151 1151 1151 1148 1148 1148 1148 1148 1144 1144 1144 1144 1140 1140 1140 1140 1140 1136 1136 1136 1136 1136 1136 1133 1133 1133 1133 1133 1133 1133 1133 1133 1133 1129 1129 1125 1125 1122 1122 1118 1118 1114 1114 1068 978 978 978 978 978 976 976 976 976 978 978 978 981 981 981 981 1104 1104 1104 1104 1104 1104 1104 1104 1104 1104 1100 1100 1100 1097 1097 1097 1097 1097 1097 1093 1093 1093 1093 1090 1090 1090 1086 1083 1083 1083 1083 1083 1083 1083 1083 1083 1083 1079 1079 1079 1076 1076 1076 1076 1076 1076 1076 1076 1076 1073 1069 1069 1069 1069 1066 1073 1069 1066 1066 1066 1066 1063 1066 1063 1066 1063 1063 1063 1063 1060 1060 1056 1056 1056 1053 1053 1053 1053 1053 1053 1050 1050 1050 1050 1050 1053 1050 1050 1050 1050 1050 1050 1050 1047 1047 1047 1047 1044 1040 1040 1040 1037 1037 1037 1040 1040 1040 1037 1037 1037 1037 1037 1034 1034 1034 1034 1034 1031 1031 1031 1028 1028 1028 1028 1028 1028 1028 1028 1025 1028 1028 1025 1025 1025 1025 1025 1022 1022 1019 1019 1019 1016 1019 1016 1016 1016 1016 1013 1013 1013 1013 1013 1013 1013 1013 1013 1013 1013 1010 1010 1010 1007 1007 1007 1004 1004 1004 1004 1004 1004 1004 1004 1004 1004 1001 1001 1001 1001 1001 998 998 995 995 995 995 995 995 995 995 995 995 995 995 995 995 993 993 0 0 0 0 0 0 0 0 0 0 0 0 0 0 0 0 0 0 0 0 0 0 0 0 0 0 0 0 0 0 0 0 0 0 0 0 0 0
    1299 1299 1299 1299 1294 1294 1294 1289 1289 1289 1289 1289 1289 1289 1289 1289 1289 1289 1289 1289 1284 1284 1284 1280 1280 1280 1275 1275 1275 1270 1270 1270 1270 1270 1270 1270 1270 1270 1265 1265 1265 1261 1261 1256 1256 1256 1256 1261 1261 1261 1261 1256 1252 1252 1252 1247 1247 1247 1247 1247 1247 1247 1247 1247 1247 1247 1243 1243 1238 1238 1234 1234 1234 1234 1234 1234 1234 1234 1229 1229 1229 1229 1229 1229 1229 1229 1225 1225 1225 1225 1225 1225 1221 1221 1221 1216 1216 1216 1216 1216 1216 1216 1216 1216 1212 1216 1212 1212 1212 1212 1212 1212 1204 1204 1204 1200 1200 1200 1200 1195 1200 1200 1195 1195 1195 1195 1195 1195 1195 1191 1191 1187 1187 1187 1183 1183 1183 1183 1183 1187 1187 1031 1034 1031 1031 1031 1031 1031 1031 1031 1034 1034 1037 1037 1037 0 0 0 0 0 1163 1163 1167 1167 868 866 866 866 863 863 863 863 863 861 861 861 863 863 866 866 866 0 1151 1151 1151 1151 1151 1151 1151 1148 1148 1148 1144 1144 1144 1144 1144 1144 1140 1140 1140 1136 1136 1136 1136 1136 1136 1136 1133 1133 1133 1133 1133 1133 1133 1133 1133 1133 1129 1129 1125 1125 1122 1118 1118 1118 1114 1114 1114 978 978 978 978 978 978 976 976 976 978 978 978 978 981 981 981 1104 1104 1104 1104 1104 1100 1104 1104 1104 1104 1100 1100 1100 1100 1100 1097 1097 1097 1097 1093 1093 1093 1093 1090 1090 1090 1086 1086 1086 1083 1083 1083 1079 1079 1079 1079 1079 1079 1079 1076 1076 1076 1076 1076 1076 1076 1076 1076 1073 1073 1069 1069 1069 1069 1066 1073 1069 1066 1066 1066 1066 1063 1063 1063 1063 1063 1063 1063 1060 1060 1060 1056 1056 1056 1053 1053 1053 1053 1053 1053 1053 1053 1050 1053 1050 1053 1050 1050 1050 1050 1050 1050 1050 1047 1047 1047 1047 1040 1044 1040 1040 1040 1040 1037 1040 1040 1040 1037 1037 1037 1037 1037 1034 1034 1034 1034 1034 1031 1031 1031 1031 1028 1028 1028 1028 1028 1028 1025 1025 1025 1025 1025 1025 1025 1025 1025 1025 1022 1022 1022 1019 1019 1019 1016 1016 1016 1013 1013 1013 1013 1013 1013 1013 1013 1013 1013 1013 1013 1010 1007 1007 1007 1007 1004 1004 1004 1004 1004 1004 1004 1004 1004 1004 1001 1004 1001 1001 1001 1001 998 998 995 993 995 995 993 995 995 995 995 995 995 995 995 995 995 993 0 0 0 0 0 0 0 0 0 0 0 0 0 0 0 0 0 0 0 0 0 0 0 0 0 0 0 0 0 0 0 0 0 0 0 0 0 0
    1299 1304 1299 1299 1294 1294 1294 1294 1294 1289 1289 1289 1289 1289 1289 1289 1289 1289 1284 1284 1284 1284 1284 1280 1280 1280 1275 1275 1270 1270 1270 1270 1270 1270 1270 1270 1270 1265 1265 1265 1265 1261 1261 1256 1256 1256 1256 1256 1256 1256 1256 1256 1252 1252 1252 1247 1247 1247 1247 1247 1247 1247 1247 1247 1247 1243 1243 1238 1238 1238 1234 1234 1234 1234 1234 1234 1234 1234 1229 1229 1229 1229 1229 1229 1229 1229 1225 1225 1225 1225 1221 1225 1221 1221 1216 1216 1216 1216 1216 1216 1216 1216 1216 1216 1216 1216 1212 1212 1212 1212 1208 1208 1204 1204 1200 1200 1200 1200 1200 1195 1200 1200 1195 1195 1195 1195 1195 1195 1195 1191 1191 1187 1187 1183 1183 1183 1183 1183 1183 1187 1034 1031 1034 1031 1031 1034 1031 1031 1031 1034 1034 1034 1037 1037 1037 1037 0 0 0 0 1167 1167 1167 1171 868 866 866 866 863 863 863 863 861 861 861 861 863 863 863 866 866 0 1151 1151 1151 1151 1151 1151 1151 1151 1148 1148 1148 1144 1144 1144 1144 1140 1140 1140 1136 1136 1136 1136 1136 1136 1136 1133 1133 1133 1133 1133 1133 1133 1133 1129 1133 1133 1129 1129 1125 1125 1122 1122 1122 1118 1118 1118 1118 978 981 978 978 978 978 976 976 976 978 978 981 981 981 981 981 1104 1104 1104 1104 1104 1104 1104 1104 1104 1104 1100 1100 1100 1097 1097 1097 1097 1093 1093 1093 1093 1093 1093 1093 1090 1090 1090 1090 1086 1083 1083 1083 1083 1083 1083 1079 1079 1079 1079 1076 1076 1076 1076 1076 1076 1076 1073 1076 1073 1076 1069 1069 1069 1069 1067 1069 1069 1067 1066 1066 1066 1063 1063 1063 1063 1063 1060 1060 1060 1060 1060 1056 1056 1056 1056 1056 1056 1056 1053 1053 1053 1050 1050 1050 1050 1050 1047 1047 1047 1047 1047 1050 1050 1050 1050 1047 1047 1040 1040 1040 1040 1040 1040 1040 1040 1040 1040 1037 1037 1037 1037 1037 1034 1034 1034 1034 1031 1031 1031 1031 1031 1028 1028 1028 1028 1028 1025 1025 1025 1025 1025 1025 1025 1025 1025 1025 1025 1022 1022 1022 1022 1022 1022 1019 1019 1016 1016 1013 1016 1016 1016 1016 1016 1016 1016 1016 1013 1013 1010 1010 1007 1007 1004 1004 1004 1007 1007 1004 1004 1004 1004 1004 1001 1001 1001 1001 1001 1001 1001 998 998 995 995 995 995 993 995 995 995 995 995 995 995 995 993 993 993 0 0 0 0 0 0 0 0 0 0 0 0 0 0 0 0 0 0 0 0 0 0 0 0 0 0 0 0 0 0 0 0 0 0 0 0 0 0
    1304 1304 1304 1299 1299 1294 1294 1294 1294 1289 1289 1289 1289 1289 1289 1289 1289 1289 1289 1284 1284 1284 1280 1280 1275 1280 1275 1270 1270 1270 1270 1270 1270 1270 1270 1270 1270 1265 1265 1265 1261 1261 1261 1256 1256 1256 1256 1256 1256 1256 1256 1256 1252 1252 1247 1247 1247 1247 1247 1247 1247 1247 1247 1247 1247 1247 1243 1238 1238 1238 1234 1234 1234 1234 1234 1234 1234 1234 1234 1234 1229 1229 1229 1229 1229 1229 1225 1225 1225 1225 1225 1225 1221 1221 1221 1221 1216 1216 1216 1216 1216 1216 1216 1216 1212 1212 1212 1212 1208 1208 1208 1208 1208 1204 1204 1204 1200 1200 1200 1200 1195 1195 1195 1195 1195 1195 1195 1195 1195 1191 1191 1187 1187 1187 1187 1183 1183 1183 1183 1187 1187 1031 1034 1031 1031 1031 1031 1031 1031 1034 1034 1034 1037 1037 1037 1037 1037 0 0 0 1167 1167 1167 1171 868 866 863 863 863 863 863 861 861 861 861 861 863 863 863 866 866 1151 1151 1151 1151 1151 1151 1148 1151 1148 1148 1148 1148 1144 1144 1144 1144 1140 1140 1140 1136 1136 1136 1136 1136 1136 1133 1133 1133 1133 1133 1133 1133 1129 1129 1129 1129 1129 1129 1125 1122 1122 1122 1122 1122 1122 1118 1118 1118 981 981 978 978 978 978 978 976 978 978 978 981 981 981 981 981 1104 1104 1104 1104 1104 1104 1104 1104 1104 1104 1104 1104 1100 1100 1097 1097 1097 1093 1093 1093 1093 1093 1093 1093 1090 1090 1090 1090 1090 1086 1086 1083 1083 1083 1083 1083 1079 1079 1079 1076 1076 1076 1076 1076 1076 1076 1073 1073 1073 1073 1069 1069 1069 1069 1069 1069 1069 1069 1066 1066 1066 1063 1063 1063 1063 1063 1063 1063 1060 1060 1060 1060 1056 1056 1056 1056 1056 1056 1053 1053 1053 1053 1053 1050 1050 1050 1047 1047 1047 1047 1053 1050 1050 1050 1047 1047 1047 1044 1040 1040 1040 1040 1040 1040 1040 1040 1040 1037 1037 1037 1037 1037 1037 1037 1037 1034 1034 1034 1031 1031 1031 1028 1028 1028 1025 1028 1028 1025 1025 1025 1025 1025 1025 1025 1025 1025 1025 1022 1022 1022 1022 1019 1019 1019 1016 1016 1016 1013 1013 1013 1013 1013 1013 1013 1013 1013 1013 1013 1010 1010 1010 1007 1004 1004 1004 1004 1004 1004 1004 1004 1004 1004 1001 1001 1001 1001 1001 1001 998 998 998 995 993 995 993 995 995 995 995 995 998 998 993 993 993 995 993 0 0 0 0 0 0 0 0 0 0 0 0 0 0 0 0 0 0 0 0 0 0 0 0 0 0 0 0 0 0 0 0 0 0 0 0 0 0
    1304 1304 1304 1304 1299 1299 1294 1294 1294 1294 1289 1289 1289 1289 1289 1289 1289 1289 1284 1284 1284 1284 1280 1280 1275 1275 1270 1270 1270 1270 1270 1270 1270 1270 1270 1270 1270 1265 1265 1265 1265 1261 1261 1261 1261 1261 1261 1261 1261 1256 1256 1256 1252 1252 1252 1247 1247 1247 1247 1247 1247 1247 1247 1247 1247 1247 1243 1243 1243 1238 1238 1234 1234 1234 1234 1234 1234 1234 1234 1234 1234 1234 1229 1229 1229 1225 1225 1225 1225 1221 1221 1221 1221 1221 1221 1216 1216 1216 1216 1216 1216 1216 1212 1216 1212 1212 1212 1212 1208 1204 1204 1208 1204 1204 1204 1204 1204 1200 1200 1200 1200 1200 1200 1195 1195 1195 1195 1195 1195 1191 1191 1191 1187 1187 1187 1183 1183 1187 1187 1187 1034 1037 1034 1034 1031 1034 1031 1031 1031 1034 1034 1034 1037 1037 1037 1037 1037 0 0 0 1167 1167 1171 1171 866 863 863 863 863 863 861 861 861 861 861 861 863 863 863 863 866 1155 1151 1148 1151 1148 1148 1148 1148 1148 1148 1148 1148 1144 1144 1144 1144 1140 1140 1140 1136 1136 1136 1136 1136 1136 1133 1133 1133 1133 1133 1133 1129 1129 1129 1129 1129 1129 1125 1125 1122 1122 1122 1122 1122 1122 1122 1118 1118 981 981 978 978 978 978 976 976 976 978 978 981 981 981 981 981 1104 1104 1104 1104 1104 1104 1104 1104 1104 1104 1100 1100 1100 1097 1097 1097 1093 1093 1093 1093 1093 1093 1093 1093 1090 1090 1090 1090 1086 1086 1083 1083 1083 1083 1083 1083 1079 1079 1079 1076 1076 1076 1076 1076 1076 1076 1073 1076 1073 1073 1069 1069 1069 1069 1069 1069 1066 1066 1066 1066 1066 1063 1063 1063 1063 1063 1060 1060 1060 1060 1056 1056 1056 1056 1056 1056 1056 1056 1056 1053 1053 1053 1053 1053 1053 1050 1047 1047 1047 1047 1050 1047 1050 1050 1047 1047 1047 1044 1044 1044 1040 1040 1040 1040 1040 1040 1040 1037 1037 1037 1037 1037 1034 1034 1034 1034 1034 1034 1031 1031 1028 1028 1028 1028 1028 1028 1028 1028 1028 1028 1028 1025 1025 1028 1025 1025 1025 1022 1022 1022 1022 1019 1019 1019 1016 1016 1013 1013 1013 1013 1016 1013 1013 1013 1016 1016 1013 1013 1010 1010 1010 1007 1004 1004 1004 1004 1004 1004 1004 1004 1004 1001 1001 1001 1001 1001 1001 998 998 998 998 995 993 993 993 995 995 995 995 995 998 993 993 993 993 993 993 0 0 0 0 0 0 0 0 0 0 0 0 0 0 0 0 0 0 0 0 0 0 0 0 0 0 0 0 0 0 0 0 0 0 0 0 0 0
    1304 1304 1304 1304 1304 1299 1299 1299 1299 1294 1294 1294 1294 1294 1294 1294 1289 1289 1289 1284 1284 1284 1280 1280 1275 1275 1275 1270 1270 1270 1270 1270 1270 1270 1270 1270 1270 1270 1265 1265 1265 1265 1261 1261 1261 1256 1256 1256 1256 1256 1256 1252 1252 1252 1247 1247 1247 1247 1247 1247 1247 1247 1247 1247 1247 1247 1247 1247 1243 1243 1243 1238 1234 1234 1238 1234 1234 1234 1234 1234 1234 1229 1229 1229 1229 1229 1229 1225 1225 1229 1229 1225 1221 1221 1221 1221 1216 1216 1216 1216 1216 1216 1216 1216 1212 1212 1212 1212 1208 1208 1208 1208 1208 1204 1204 1204 1200 1200 1200 1200 1200 1200 1195 1195 1195 1195 1195 1191 1195 1191 1191 1187 1191 1187 1187 1187 1187 1187 1187 1187 1191 1037 1037 1034 1034 1034 1034 1034 1034 1034 1034 1037 1037 1037 1037 1037 1037 0 0 1167 1167 1167 1167 863 863 863 863 863 863 863 861 861 861 861 861 861 861 863 863 863 863 1151 1148 1148 1148 1148 1148 1148 1148 1148 1148 1148 1148 1144 1144 1144 1144 1140 1140 1140 1136 1136 1136 1136 1136 1136 1133 1133 1133 1133 1133 1133 1133 1133 1129 1129 1129 1125 1125 1125 1122 1122 1122 1122 1122 1122 1122 1118 1118 981 981 981 978 978 978 978 978 978 978 978 981 981 981 978 981 1104 1100 1104 1104 1100 1100 1104 1104 1104 1104 1100 1100 1100 1100 1097 1097 1093 1093 1093 1093 1093 1093 1093 1093 1093 1090 1090 1090 1086 1086 1086 1083 1083 1083 1083 1083 1079 1079 1079 1076 1076 1076 1076 1076 1076 1076 1076 1076 1073 1073 1069 1069 1069 1069 1069 1069 1067 1066 1066 1066 1063 1063 1063 1063 1063 1060 1060 1060 1060 1060 1060 1060 1060 1056 1056 1056 1056 1056 1053 1053 1053 1053 1053 1053 1053 1053 1050 1047 1047 1047 1047 1047 1047 1047 1047 1047 1044 1044 1040 1040 1040 1040 1040 1040 1040 1040 1040 1037 1037 1040 1037 1037 1037 1037 1037 1037 1034 1034 1028 1028 1028 1028 1028 1028 1028 1028 1028 1025 1028 1025 1025 1025 1025 1025 1025 1022 1022 1022 1019 1019 1019 1016 1016 1016 1016 1013 1013 1013 1013 1016 1016 1016 1016 1016 1016 1016 1016 1013 1013 1010 1010 1010 1007 1007 1004 1004 1004 1004 1004 1004 1004 1001 1001 1001 1001 1001 1001 1001 998 998 998 995 993 993 993 995 993 995 995 995 998 993 993 993 993 993 990 0 0 0 0 0 0 0 0 0 0 0 0 0 0 0 0 0 0 0 0 0 0 0 0 0 0 0 0 0 0 0 0 0 0 0 0 0 0
    1304 1304 1304 1309 1304 1304 1299 1299 1299 1299 1299 1299 1294 1294 1294 1294 1289 1289 1289 1284 1284 1284 1284 1280 1280 1280 1275 1275 1270 1270 1270 1270 1270 1270 1270 1270 1270 1270 1265 1265 1265 1265 1261 1261 1256 1256 1256 1256 1256 1256 1256 1256 1252 1252 1252 1247 1247 1247 1247 1247 1247 1247 1247 1247 1247 1247 1247 1243 1243 1243 1247 1243 1238 1238 1238 1238 1238 1234 1234 1234 1234 1229 1229 1229 1229 1229 1229 1225 1225 1221 1221 1221 1221 1221 1221 1216 1216 1216 1216 1212 1216 1216 1212 1212 1212 1212 1212 1208 1208 1208 1208 1204 1204 1200 1200 1200 1200 1200 1200 1200 1200 1200 1195 1195 1195 1195 1191 1191 1191 1191 1187 1187 1187 1191 1187 1187 1187 1187 1187 1187 1191 1037 1037 1037 1037 1037 1034 1034 1034 1034 1034 1037 1037 1037 1037 1037 0 0 0 1167 1167 1167 1171 866 866 863 863 863 863 863 861 861 861 861 861 859 861 861 863 863 863 863 1148 1148 1148 1148 1148 1148 1148 1148 1148 1144 1144 1144 1144 1140 1140 1140 1140 1136 1136 1136 1136 1136 1136 1136 1133 1133 1133 1133 1133 1133 1133 1129 1129 1129 1129 1129 1125 1125 1122 1122 1122 1122 1122 1122 1122 1122 1122 981 981 978 978 978 978 978 976 978 978 978 981 981 978 978 981 1100 1100 1104 1104 1104 1104 1104 1104 1104 1104 1104 1104 1104 1100 1100 1100 1097 1097 1093 1093 1093 1093 1093 1090 1090 1090 1090 1090 1090 1086 1086 1086 1083 1083 1083 1083 1079 1079 1076 1076 1076 1076 1076 1076 1076 1076 1076 1076 1073 1073 1073 1069 1069 1069 1069 1069 1069 1066 1066 1066 1066 1066 1063 1063 1063 1063 1060 1060 1060 1060 1060 1056 1056 1060 1056 1056 1056 1056 1053 1053 1053 1053 1053 1053 1053 1053 1050 1050 1044 1044 1047 1047 1044 1047 1047 1044 1044 1044 1044 1040 1040 1040 1040 1037 1040 1040 1037 1037 1037 1037 1037 1037 1037 1037 1037 1037 1034 1034 1028 1028 1028 1028 1028 1028 1028 1028 1028 1025 1025 1025 1025 1025 1025 1025 1025 1022 1022 1022 1019 1019 1019 1016 1016 1016 1013 1013 1013 1013 1013 1013 1016 1013 1016 1016 1016 1016 1016 1013 1013 1010 1010 1010 1007 1007 1004 1004 1004 1004 1004 1004 1001 1001 1001 1001 1001 998 1001 998 998 998 998 998 995 998 993 998 995 995 995 998 998 993 993 993 993 993 990 0 0 0 0 0 0 0 0 0 0 0 0 0 0 0 0 0 0 0 0 0 0 0 0 0 0 0 0 0 0 0 0 0 0 0 0 0 0
    1304 1304 1309 1309 1304 1304 1299 1299 1299 1294 1294 1294 1294 1294 1294 1294 1289 1289 1289 1289 1284 1284 1280 1280 1275 1275 1275 1270 1270 1270 1270 1270 1270 1270 1270 1270 1265 1265 1265 1265 1265 1261 1261 1261 1256 1256 1256 1256 1256 1252 1252 1252 1252 1252 1247 1247 1247 1247 1247 1247 1247 1247 1247 1247 1247 1247 1247 1243 1243 1243 1243 1243 1238 1238 1238 1238 1238 1238 1234 1234 1234 1234 1229 1229 1229 1229 1229 1229 1225 1229 1229 1225 1221 1221 1221 1221 1216 1216 1216 1216 1216 1216 1212 1212 1212 1212 1212 1208 1208 1208 1208 1208 1204 1204 1200 1200 1200 1200 1200 1200 1200 1200 1195 1195 1195 1195 1191 1195 1191 1191 1187 1187 1187 1187 1187 1187 1187 1187 1187 1191 1040 1037 1037 1034 1037 1037 1034 1034 1034 1034 1034 1034 1037 1037 0 0 0 0 0 1167 1167 1167 1167 866 866 866 866 866 866 866 863 863 863 863 863 863 863 866 866 864 864 866 1151 1148 1148 1148 1148 1148 1148 1148 1144 1144 1144 1144 1140 1140 1140 1140 1136 1136 1136 1136 1136 1136 1136 1136 1133 1133 1133 1133 1133 1133 1133 1133 1129 1129 1129 1125 1125 1125 1122 1122 1122 1122 1122 1122 1122 1122 1122 981 978 978 978 978 978 978 978 978 978 978 981 978 978 978 978 1104 1100 1104 1104 1104 1104 1104 1104 1104 1104 1104 1104 1100 1100 1100 1097 1097 1093 1093 1093 1093 1093 1093 1090 1090 1090 1090 1090 1090 1086 1086 1086 1083 1083 1083 1083 1079 1076 1076 1076 1076 1076 1076 1076 1076 1076 1076 1076 1076 1076 1073 1073 1069 1069 1066 1069 1069 1066 1066 1066 1066 1066 1063 1063 1063 1063 1060 1060 1060 1060 1056 1056 1056 1056 1056 1056 1056 1053 1053 1053 1053 1053 1053 1053 1053 1053 1050 1050 1047 1047 1047 1047 1047 1047 1047 1047 1044 1044 1044 1040 1040 1040 1040 1037 1040 1040 1037 1037 1037 1037 1037 1037 1034 1037 1034 1037 1037 1034 1028 1031 1028 1028 1028 1028 1028 1028 1028 1025 1025 1025 1025 1025 1025 1025 1025 1022 1022 1022 1022 1019 1019 1019 1016 1016 1016 1013 1013 1013 1016 1016 1016 1016 1016 1016 1016 1016 1016 1013 1013 1013 1013 1013 1010 1010 1007 1007 1004 1004 1004 1004 1004 1001 1001 1001 998 998 998 998 998 1001 1001 998 998 998 995 998 995 998 998 998 998 998 993 993 993 990 990 0 0 0 0 0 0 0 0 0 0 0 0 0 0 0 0 0 0 0 0 0 0 0 0 0 0 0 0 0 0 0 0 0 0 0 0 0 0
    1304 1304 1304 1304 1304 1304 1299 1299 1299 1294 1294 1294 1294 1294 1294 1294 1289 1289 1289 1284 1284 1284 1284 1284 1280 1280 1275 1275 1270 1270 1270 1270 1270 1265 1265 1265 1265 1265 1265 1265 1265 1261 1256 1261 1256 1256 1256 1256 1252 1252 1252 1252 1252 1252 1252 1247 1247 1247 1247 1247 1247 1247 1247 1247 1247 1247 1243 1243 1243 1243 1243 1238 1238 1238 1238 1238 1238 1234 1234 1234 1234 1234 1229 1229 1229 1229 1229 1229 1225 1225 1229 1221 1221 1221 1221 1221 1216 1216 1216 1216 1216 1216 1212 1212 1212 1212 1212 1208 1208 1204 1204 1204 1204 1204 1200 1200 1200 1200 1200 1200 1200 1200 1200 1195 1195 1195 1195 1191 1191 1191 1191 1187 1187 1187 1187 1187 1187 1191 1191 1191 1040 1037 1034 1034 1034 1034 1034 1034 1034 1037 1037 1034 1037 1037 0 0 0 0 0 1167 1171 1171 1171 1167 866 866 866 866 866 866 863 863 863 863 863 863 863 863 866 866 866 866 1148 1148 1148 1148 1148 1148 1148 1144 1144 1144 1144 1144 1140 1140 1140 1140 1140 1136 1136 1136 1136 1136 1136 1136 1133 1133 1133 1133 1133 1133 1129 1129 1129 1125 1125 1125 1125 1125 1122 1122 1122 1122 1122 1122 1122 1122 1122 1028 981 978 978 978 978 978 976 976 978 978 978 978 978 978 978 1104 1104 1104 1104 1104 1104 1104 1104 1104 1104 1104 1104 1104 1100 1100 1100 1097 1093 1093 1093 1093 1093 1093 1090 1090 1090 1090 1090 1090 1086 1086 1086 1086 1083 1083 1083 1079 1079 1076 1076 1076 1076 1076 1076 1076 1076 1076 1076 1076 1076 1073 1073 1069 1069 1067 1069 1066 1066 1066 1066 1066 1066 1063 1063 1063 1063 1060 1063 1060 1060 1060 1060 1060 1060 1056 1056 1056 1056 1053 1053 1053 1053 1053 1053 1053 1053 1050 1050 1050 1050 1047 1050 1047 1047 1047 1047 1047 1044 1047 1040 1040 1040 1040 1037 1037 1037 1037 1037 1037 1037 1037 1037 1034 1034 1034 1034 1031 1031 1028 1028 1028 1028 1028 1028 1028 1028 1025 1025 1025 1025 1025 1025 1025 1025 1025 1022 1022 1022 1019 1019 1019 1016 1016 1016 1016 1013 1013 1013 1016 1016 1016 1016 1016 1016 1016 1016 1016 1013 1013 1013 1013 1010 1010 1010 1007 1007 1007 1004 1004 1004 1004 1004 1001 1001 1001 1001 1001 1001 998 998 998 998 998 998 998 998 998 998 998 998 1001 1001 993 993 993 993 992 0 0 0 0 0 0 0 0 0 0 0 0 0 0 0 0 0 0 0 0 0 0 0 0 0 0 0 0 0 0 0 0 0 0 0 0 0 0
    1304 1304 1304 1304 1304 1304 1299 1299 1299 1299 1294 1299 1294 1294 1294 1294 1289 1289 1289 1289 1289 1289 1289 1284 1284 1280 1280 1275 1270 1270 1270 1270 1270 1265 1265 1265 1265 1265 1265 1265 1265 1261 1256 1256 1256 1256 1256 1252 1252 1252 1252 1252 1256 1252 1252 1252 1252 1252 1247 1247 1247 1247 1247 1247 1247 1247 1247 1243 1243 1243 1243 1238 1234 1234 1234 1234 1234 1234 1234 1234 1234 1234 1234 1229 1229 1229 1229 1229 1225 1225 1221 1221 1221 1221 1221 1216 1216 1216 1216 1216 1216 1216 1212 1212 1212 1212 1212 1208 1204 1204 1208 1204 1204 1204 1204 1200 1200 1200 1200 1200 1200 1200 1200 1195 1195 1195 1195 1191 1191 1191 1191 1191 1191 1187 1187 1187 1187 1195 1191 1191 1040 1037 1037 1034 1037 1037 1034 1037 1037 1037 1037 1037 1037 1037 0 0 0 0 1163 1167 1167 1171 1171 1163 868 866 866 866 866 863 863 863 863 863 863 863 863 866 866 867 867 1151 1151 1148 1148 1148 1148 1148 1148 1148 1148 1144 1144 1144 1144 1140 1140 1140 1140 1136 1136 1136 1136 1136 1136 1136 1136 1133 1133 1133 1133 1133 1129 1129 1129 1125 1125 1125 1125 1125 1122 1122 1122 1122 1122 1122 1122 1122 1122 1075 981 978 978 978 978 976 976 976 978 978 978 978 978 976 976 1104 1104 1104 1104 1104 1104 1104 1104 1104 1104 1104 1104 1100 1100 1100 1100 1097 1097 1093 1093 1093 1093 1090 1090 1090 1090 1086 1086 1086 1086 1086 1083 1083 1083 1083 1079 1076 1076 1076 1076 1076 1076 1076 1076 1076 1076 1076 1076 1076 1076 1073 1073 1073 1069 1069 1069 1067 1067 1066 1066 1066 1066 1063 1063 1063 1063 1060 1060 1060 1060 1060 1060 1060 1060 1060 1060 1056 1056 1056 1056 1053 1053 1053 1053 1053 1053 1050 1050 1050 1050 1050 1050 1050 1050 1050 1047 1047 1047 1047 1044 1040 1040 1040 1037 1037 1037 1037 1037 1037 1037 1037 1037 1037 1034 1034 1034 1034 1031 1031 1031 1028 1028 1028 1028 1028 1028 1025 1025 1025 1025 1025 1025 1025 1025 1025 1022 1022 1022 1022 1019 1019 1019 1019 1019 1016 1016 1016 1016 1016 1016 1016 1016 1016 1016 1016 1016 1016 1016 1013 1013 1013 1010 1010 1010 1007 1007 1007 1004 1004 1004 1004 1004 1001 1001 1001 1001 1001 1001 1001 998 1001 998 998 998 998 1001 995 998 998 1001 1004 1004 1004 995 1001 1001 995 0 0 0 0 0 0 0 0 0 0 0 0 0 0 0 0 0 0 0 0 0 0 0 0 0 0 0 0 0 0 0 0 0 0 0 0 0 0
    1304 1304 1304 1304 1304 1304 1299 1299 1299 1294 1294 1299 1294 1294 1294 1294 1289 1289 1289 1289 1289 1289 1284 1284 1284 1280 1280 1275 1275 1270 1270 1270 1270 1265 1265 1265 1265 1265 1265 1265 1265 1261 1261 1256 1256 1256 1256 1252 1252 1252 1252 1252 1252 1252 1252 1252 1252 1252 1247 1247 1247 1247 1247 1247 1247 1247 1247 1243 1238 1238 1238 1238 1238 1234 1234 1234 1234 1234 1234 1234 1234 1234 1234 1229 1229 1229 1229 1229 1225 1225 1225 1221 1221 1221 1221 1216 1216 1216 1216 1216 1216 1216 1212 1212 1212 1212 1212 1208 1208 1204 1208 1208 1204 1204 1204 1204 1204 1204 1200 1200 1200 1200 1200 1195 1195 1195 1195 1191 1195 1195 1191 1191 1191 1191 1187 1187 1187 1187 1191 1191 1042 1040 1037 1037 1037 1037 1037 1037 1037 1040 1040 1037 1037 1037 0 0 0 0 0 1167 1167 1167 1171 0 867 866 867 866 866 866 863 863 863 863 863 863 863 866 866 868 868 868 1151 1148 1148 1148 1148 1148 1144 1144 1144 1144 1144 1144 1144 1144 1144 1144 1144 1140 1136 1136 1136 1136 1136 1136 1136 1136 1136 1136 1133 1133 1133 1133 1129 1129 1125 1125 1125 1125 1122 1122 1122 1122 1122 1122 1122 1122 1122 1122 981 981 981 981 981 978 978 978 978 978 978 978 978 978 978 1104 1104 1104 1104 1104 1104 1104 1104 1104 1104 1104 1104 1100 1104 1100 1100 1100 1097 1093 1093 1093 1090 1090 1090 1090 1090 1090 1086 1086 1086 1086 1083 1086 1083 1083 1079 1079 1079 1079 1076 1076 1076 1076 1076 1076 1076 1076 1076 1076 1076 1073 1073 1073 1073 1069 1069 1069 1069 1066 1066 1066 1066 1066 1066 1066 1063 1063 1063 1063 1063 1060 1060 1060 1060 1060 1063 1060 1060 1056 1056 1056 1056 1056 1053 1056 1053 1053 1053 1053 1053 1053 1053 1050 1053 1053 1050 1050 1050 1050 1047 1044 1044 1044 1040 1040 1040 1040 1040 1040 1040 1040 1040 1040 1037 1040 1037 1037 1037 1034 1034 1034 1031 1031 1031 1031 1031 1031 1028 1028 1028 1025 1028 1025 1028 1028 1025 1025 1025 1025 1022 1022 1022 1019 1019 1019 1016 1019 1019 1016 1019 1019 1016 1016 1019 1019 1019 1019 1016 1016 1016 1016 1013 1013 1010 1010 1007 1007 1007 1007 1007 1007 1004 1004 1004 1004 1004 1004 1004 1004 1004 1001 1001 1001 1001 1001 1001 1001 1001 1001 1001 1004 1001 1001 995 995 993 993 0 0 0 0 0 0 0 0 0 0 0 0 0 0 0 0 0 0 0 0 0 0 0 0 0 0 0 0 0 0 0 0 0 0 0 0 0 0
    1299 1299 1304 1304 1304 1299 1299 1299 1299 1299 1294 1299 1294 1294 1294 1294 1289 1289 1289 1289 1289 1289 1289 1289 1284 1284 1284 1280 1275 1270 1270 1270 1270 1270 1270 1270 1267 1267 1265 1265 1265 1265 1261 1261 1261 1261 1256 1256 1256 1256 1256 1256 1256 1256 1256 1256 1252 1252 1252 1252 1252 1252 1252 1252 1252 1252 1252 1247 1243 1247 1238 1238 1238 1238 1234 1234 1234 1234 1234 1234 1229 1229 1229 1229 1229 1229 1229 1225 1225 1225 1221 1221 1216 1216 1216 1216 1216 1216 1216 1216 1216 1216 1212 1212 1212 1212 1212 1208 1208 1204 1204 1204 1204 1204 1200 1204 1204 1204 1200 1200 1195 1195 1195 1195 1195 1195 1195 1195 1195 1195 1191 1191 1191 1187 1187 1187 1183 1187 1187 1187 1044 1040 1037 1037 1037 1037 1037 1040 1040 1040 1037 1037 1037 1037 0 0 0 0 0 1167 1167 1167 1171 0 866 866 868 866 866 863 863 863 863 863 863 863 863 866 866 866 866 868 1155 1151 1151 1151 1151 1151 1151 1151 1148 1148 1148 1148 1148 1148 1148 1148 1148 1144 1144 1140 1140 1140 1140 1140 1140 1140 1140 1136 1136 1136 1136 1136 1133 1133 1133 1133 1129 1133 1125 1122 1125 1122 1122 1122 1122 1122 1122 1122 1055 984 981 981 981 978 978 978 978 978 978 978 978 978 978 978 1104 1104 1104 1104 1104 1104 1104 1104 1104 1104 1104 1100 1100 1100 1100 1097 1097 1093 1093 1090 1090 1090 1090 1090 1086 1086 1086 1086 1086 1083 1083 1083 1083 1079 1079 1079 1079 1079 1079 1076 1076 1076 1079 1079 1079 1079 1079 1079 1079 1076 1076 1076 1076 1076 1076 1076 1073 1069 1069 1067 1066 1066 1066 1066 1066 1063 1063 1063 1063 1060 1060 1060 1060 1060 1060 1060 1060 1056 1056 1056 1056 1056 1053 1053 1053 1053 1053 1053 1053 1053 1053 1050 1050 1050 1050 1050 1050 1050 1047 1047 1044 1044 1040 1040 1040 1040 1040 1040 1040 1040 1040 1040 1037 1040 1037 1037 1037 1037 1037 1034 1034 1031 1031 1031 1031 1031 1028 1028 1028 1025 1025 1025 1025 1025 1022 1025 1025 1025 1022 1022 1022 1022 1019 1019 1019 1019 1019 1019 1019 1019 1016 1019 1019 1019 1019 1019 1019 1016 1016 1016 1013 1013 1013 1010 1010 1007 1007 1007 1007 1007 1004 1004 1004 1004 1004 1004 1004 1004 1004 1004 1001 1001 1001 1001 998 1001 1001 1001 1001 1001 1001 1001 995 1001 995 995 0 0 0 0 0 0 0 0 0 0 0 0 0 0 0 0 0 0 0 0 0 0 0 0 0 0 0 0 0 0 0 0 0 0 0 0 0 0
    1304 1304 1304 1309 1304 1304 1304 1299 1299 1299 1299 1299 1299 1299 1299 1294 1294 1294 1294 1294 1294 1294 1294 1289 1289 1289 1289 1284 1280 1280 1275 1275 1275 1275 1275 1275 1270 1270 1265 1265 1265 1265 1261 1261 1256 1256 1256 1256 1256 1256 1256 1256 1256 1256 1256 1252 1252 1252 1252 1252 1252 1252 1252 1252 1252 1252 1252 1247 1243 1243 1243 1243 1243 1238 1238 1238 1238 1238 1238 1234 1234 1234 1234 1234 1234 1234 1234 1234 1234 1229 1225 1225 1221 1221 1221 1221 1221 1221 1221 1221 1221 1221 1221 1221 1221 1216 1216 1216 1212 1212 1212 1212 1208 1208 1208 1208 1208 1208 1204 1204 1204 1204 1204 1200 1200 1200 1200 1200 1200 1200 1195 1195 1195 1195 1191 1195 1195 1195 1200 1200 1044 1044 1037 1037 1037 1037 1037 1037 1037 1037 1037 1037 1040 1037 0 0 0 0 0 1171 1171 1175 1175 0 867 867 868 866 866 863 863 863 863 863 863 863 863 863 866 866 866 868 1155 1155 1151 1151 1151 1151 1151 1151 1151 1151 1151 1151 1151 1148 1151 1148 1148 1144 1140 1140 1140 1140 1140 1140 1140 1140 1136 1136 1136 1136 1136 1136 1133 1133 1133 1133 1133 1133 1129 1129 1129 1129 1125 1125 1125 1125 1125 1125 1129 1031 984 981 981 981 978 978 978 978 978 978 978 978 978 978 1107 1107 1107 1107 1107 1107 1107 1107 1107 1107 1107 1107 1107 1104 1104 1104 1104 1100 1097 1097 1093 1093 1093 1090 1090 1090 1086 1086 1086 1086 1086 1086 1083 1083 1083 1083 1083 1083 1079 1079 1079 1079 1079 1079 1079 1079 1079 1079 1079 1079 1079 1079 1076 1079 1076 1073 1073 1069 1069 1069 1067 1066 1066 1066 1066 1066 1066 1063 1063 1060 1060 1060 1060 1060 1060 1060 1060 1056 1056 1056 1056 1056 1053 1056 1053 1053 1053 1053 1053 1053 1053 1050 1050 1050 1050 1050 1047 1047 1047 1044 1044 1044 1040 1040 1040 1040 1040 1040 1040 1040 1040 1040 1037 1040 1037 1037 1037 1037 1037 1034 1034 1031 1031 1031 1031 1031 1028 1028 1025 1025 1025 1025 1025 1025 1022 1022 1022 1022 1022 1022 1022 1019 1019 1019 1019 1019 1019 1019 1019 1019 1016 1016 1019 1019 1019 1016 1019 1016 1016 1016 1013 1013 1013 1010 1010 1007 1007 1007 1007 1007 1007 1007 1007 1007 1007 1007 1007 1004 1004 1004 1001 1001 1001 1001 998 1001 1001 1001 1001 1001 1001 1001 1001 1001 995 998 0 0 0 0 0 0 0 0 0 0 0 0 0 0 0 0 0 0 0 0 0 0 0 0 0 0 0 0 0 0 0 0 0 0 0 0 0 0
    1304 1304 1304 1304 1304 1304 1304 1299 1299 1299 1299 1299 1299 1294 1294 1294 1294 1294 1294 1294 1294 1294 1294 1289 1289 1289 1284 1284 1280 1280 1275 1275 1275 1275 1270 1270 1270 1270 1265 1265 1265 1265 1261 1261 1261 1261 1256 1256 1256 1256 1256 1256 1256 1256 1256 1252 1252 1252 1252 1252 1252 1252 1252 1252 1252 1252 1252 1247 1247 1243 1243 1238 1238 1238 1238 1238 1238 1238 1238 1238 1238 1234 1234 1234 1234 1234 1234 1234 1229 1229 1225 1225 1225 1225 1225 1221 1221 1221 1221 1221 1221 1221 1221 1216 1216 1216 1216 1216 1212 1212 1212 1212 1208 1208 1208 1208 1208 1208 1204 1204 1204 1200 1204 1200 1200 1200 1200 1200 1200 1200 1195 1195 1195 1195 1191 1191 1191 1195 1200 1200 1044 1044 1037 1037 1037 1037 1037 1037 1037 1037 1037 1040 1044 1040 0 0 0 0 0 1171 1171 1171 1171 1171 868 868 868 866 866 866 866 863 863 863 863 863 863 866 866 866 866 868 870 1155 1155 1155 1151 1151 1151 1151 1151 1151 1151 1151 1151 1148 1148 1148 1148 1144 1144 1140 1140 1140 1140 1140 1140 1140 1136 1136 1136 1136 1136 1136 1136 1133 1133 1133 1133 1133 1129 1129 1129 1129 1125 1125 1125 1125 1125 1125 1129 1078 984 984 981 981 981 981 981 978 978 978 978 981 978 978 978 1107 1107 1107 1107 1107 1107 1107 1107 1107 1107 1104 1104 1104 1104 1100 1100 1097 1097 1097 1093 1093 1093 1093 1090 1090 1086 1086 1086 1083 1083 1083 1083 1083 1083 1083 1083 1083 1083 1083 1083 1083 1083 1083 1079 1079 1079 1079 1079 1079 1076 1079 1079 1079 1073 1073 1073 1069 1069 1069 1069 1066 1066 1066 1066 1066 1066 1063 1063 1060 1063 1060 1060 1060 1060 1056 1056 1056 1056 1056 1056 1056 1053 1056 1053 1053 1053 1053 1053 1053 1053 1053 1053 1053 1050 1050 1047 1047 1047 1047 1044 1044 1044 1040 1040 1040 1040 1040 1040 1040 1040 1037 1037 1037 1037 1037 1037 1037 1037 1037 1034 1031 1031 1031 1031 1028 1028 1028 1025 1025 1025 1022 1022 1025 1022 1022 1022 1022 1019 1019 1019 1019 1019 1019 1019 1019 1019 1016 1016 1016 1016 1016 1016 1016 1016 1016 1016 1016 1016 1013 1013 1010 1010 1010 1010 1007 1007 1007 1007 1007 1007 1007 1007 1007 1007 1007 1007 1004 1004 1004 1001 1001 998 998 998 998 1001 1001 1001 1001 1001 1001 1001 1001 1001 1001 0 0 0 0 0 0 0 0 0 0 0 0 0 0 0 0 0 0 0 0 0 0 0 0 0 0 0 0 0 0 0 0 0 0 0 0 0 0
    1309 1304 1304 1304 1299 1299 1299 1299 1299 1299 1294 1294 1294 1294 1294 1294 1294 1294 1294 1294 1294 1289 1289 1289 1289 1284 1284 1280 1280 1275 1275 1275 1275 1270 1270 1270 1270 1270 1265 1265 1265 1265 1261 1261 1261 1261 1261 1256 1256 1256 1256 1256 1256 1256 1256 1252 1252 1252 1252 1252 1252 1252 1252 1252 1252 1252 1252 1247 1243 1243 1243 1243 1238 1238 1238 1234 1238 1238 1238 1234 1234 1234 1238 1234 1234 1234 1234 1234 1229 1229 1225 1225 1225 1225 1221 1221 1221 1221 1221 1221 1221 1221 1221 1221 1216 1216 1216 1216 1212 1212 1212 1212 1208 1208 1208 1208 1208 1208 1204 1204 1204 1204 1204 1204 1204 1200 1200 1200 1200 1200 1195 1195 1195 1195 1191 1195 1195 1195 1200 1200 1044 1040 1037 1037 1034 1037 1037 1037 1037 1040 1040 1040 1044 1040 0 0 0 0 0 1171 1171 1171 1171 1171 1175 866 866 866 866 866 866 863 863 863 863 863 863 863 866 866 866 868 870 1155 1155 1155 1155 1151 1151 1151 1151 1151 1151 1151 1151 1148 1148 1148 1148 1144 1144 1140 1140 1140 1140 1140 1140 1140 1136 1136 1136 1136 1136 1136 1136 1136 1136 1136 1133 1133 1133 1129 1133 1129 1125 1125 1125 1125 1125 1125 1125 1125 1125 984 984 981 981 981 981 981 978 978 981 981 981 981 981 1107 1107 1107 1107 1107 1107 1107 1107 1107 1104 1104 1104 1104 1100 1100 1100 1097 1097 1097 1097 1097 1093 1093 1093 1090 1090 1086 1086 1083 1083 1083 1083 1083 1083 1083 1083 1083 1083 1083 1079 1079 1079 1079 1079 1079 1079 1079 1079 1079 1076 1076 1076 1073 1073 1073 1073 1069 1069 1069 1069 1067 1066 1066 1066 1066 1066 1066 1066 1066 1066 1066 1060 1060 1060 1056 1060 1056 1056 1056 1056 1056 1053 1053 1053 1053 1053 1053 1053 1053 1053 1050 1050 1050 1050 1050 1047 1047 1047 1047 1044 1044 1044 1044 1040 1040 1040 1040 1040 1040 1040 1037 1037 1037 1037 1037 1037 1037 1037 1034 1034 1031 1031 1031 1031 1028 1028 1028 1028 1028 1028 1025 1025 1025 1022 1022 1022 1022 1019 1019 1019 1019 1019 1019 1019 1019 1019 1019 1016 1016 1016 1016 1016 1016 1016 1016 1016 1016 1016 1013 1013 1010 1010 1007 1007 1007 1007 1007 1007 1007 1007 1004 1007 1007 1007 1007 1004 1004 1004 1004 1001 1001 998 998 998 998 998 995 995 998 998 1001 998 1001 1001 998 0 0 0 0 0 0 0 0 0 0 0 0 0 0 0 0 0 0 0 0 0 0 0 0 0 0 0 0 0 0 0 0 0 0 0 0 0 0
    1304 1304 1299 1304 1299 1299 1299 1299 1299 1299 1299 1299 1294 1294 1294 1294 1289 1289 1289 1289 1289 1289 1289 1289 1289 1289 1284 1284 1284 1280 1275 1275 1275 1275 1275 1270 1270 1270 1265 1265 1265 1265 1265 1265 1265 1261 1261 1256 1256 1256 1256 1256 1256 1256 1252 1252 1252 1252 1252 1252 1252 1252 1252 1252 1252 1252 1252 1252 1243 1243 1243 1238 1238 1238 1234 1234 1234 1234 1234 1234 1234 1234 1238 1234 1234 1234 1234 1229 1229 1225 1221 1221 1225 1225 1221 1221 1221 1221 1216 1216 1221 1221 1221 1221 1221 1216 1216 1216 1212 1212 1212 1212 1208 1208 1208 1208 1208 1208 1204 1204 1204 1204 1204 1200 1200 1200 1200 1200 1200 1200 1200 1195 1195 1191 1191 1195 1195 1195 1200 1200 1044 1040 1037 1037 1037 1037 1037 1037 1037 1040 1040 1040 1044 1044 1044 0 0 0 1171 1171 1171 1171 1171 1171 1171 866 866 866 866 863 866 866 863 863 863 863 863 863 863 866 866 866 870 870 1155 1151 1151 1151 1151 1151 1151 1151 1151 1151 1151 1148 1148 1148 1148 1144 1140 1140 1140 1140 1140 1136 1136 1136 1136 1136 1136 1136 1136 1136 1136 1136 1136 1133 1133 1133 1133 1133 1133 1129 1129 1125 1125 1125 1125 1125 1125 1122 987 984 984 981 981 981 981 981 978 981 981 981 981 984 984 1104 1107 1107 1107 1107 1107 1107 1107 1107 1104 1104 1104 1104 1104 1100 1100 1097 1097 1097 1093 1093 1093 1093 1093 1090 1090 1086 1090 1086 1083 1083 1083 1083 1083 1083 1083 1083 1083 1083 1079 1079 1083 1079 1079 1079 1079 1083 1079 1083 1083 1079 1079 1079 1079 1073 1073 1069 1069 1069 1069 1069 1066 1066 1067 1067 1066 1066 1066 1066 1063 1063 1060 1056 1056 1056 1060 1056 1056 1056 1056 1056 1053 1053 1053 1053 1053 1053 1053 1053 1053 1053 1050 1050 1050 1050 1047 1047 1047 1047 1044 1044 1044 1044 1044 1044 1040 1040 1040 1040 1040 1037 1037 1037 1037 1037 1037 1037 1037 1037 1034 1031 1031 1031 1031 1028 1028 1028 1028 1028 1025 1025 1025 1025 1025 1025 1025 1025 1022 1022 1022 1019 1019 1019 1019 1019 1016 1016 1016 1016 1016 1016 1016 1016 1016 1016 1016 1016 1016 1013 1013 1010 1010 1007 1007 1007 1007 1007 1007 1004 1004 1004 1004 1004 1004 1004 1004 1004 1004 1001 1001 998 998 995 995 995 995 995 995 995 998 998 998 998 998 995 0 0 0 0 0 0 0 0 0 0 0 0 0 0 0 0 0 0 0 0 0 0 0 0 0 0 0 0 0 0 0 0 0 0 0 0 0 0
    1304 1304 1304 1304 1299 1299 1299 1299 1299 1299 1299 1299 1299 1294 1294 1289 1289 1289 1289 1289 1289 1289 1289 1289 1289 1284 1284 1284 1280 1280 1275 1275 1275 1275 1270 1270 1270 1270 1267 1265 1265 1265 1265 1265 1265 1261 1261 1261 1261 1261 1256 1256 1256 1256 1256 1252 1252 1252 1252 1252 1252 1252 1252 1252 1252 1252 1252 1252 1247 1243 1243 1238 1238 1238 1234 1234 1234 1234 1234 1234 1234 1234 1234 1234 1234 1234 1234 1229 1229 1229 1225 1221 1225 1225 1221 1225 1225 1225 1221 1221 1221 1221 1221 1216 1221 1216 1216 1216 1212 1212 1212 1212 1208 1208 1208 1208 1208 1208 1204 1204 1204 1204 1204 1204 1200 1200 1200 1200 1200 1200 1200 1195 1195 1195 1195 1195 1195 1195 1195 1195 1044 1044 1040 1037 1037 1037 1037 1037 1037 1040 1040 1040 1044 1044 1042 0 0 0 0 1167 1167 1167 1167 1167 1167 866 866 866 866 863 863 863 863 863 863 863 863 863 863 866 866 866 868 868 1148 1151 1151 1151 1151 1151 1151 1151 1151 1151 1151 1148 1148 1148 1148 1144 1144 1140 1140 1140 1140 1136 1136 1140 1136 1136 1136 1136 1136 1136 1136 1136 1136 1136 1133 1133 1133 1133 1133 1129 1129 1125 1125 1125 1125 1125 1125 1122 987 984 984 981 981 981 981 981 981 981 981 981 984 984 984 1107 1107 1111 1107 1107 1107 1107 1107 1107 1104 1104 1104 1100 1100 1100 1097 1097 1097 1097 1097 1097 1097 1093 1093 1093 1093 1090 1090 1086 1086 1083 1086 1086 1083 1083 1083 1083 1083 1083 1083 1079 1079 1079 1079 1079 1079 1083 1079 1083 1083 1076 1079 1079 1073 1076 1073 1069 1069 1069 1069 1069 1066 1066 1069 1069 1066 1066 1066 1066 1063 1063 1060 1056 1056 1056 1060 1056 1056 1056 1056 1056 1056 1056 1053 1053 1053 1053 1053 1053 1050 1050 1050 1050 1050 1050 1047 1047 1047 1047 1044 1044 1044 1044 1044 1044 1040 1040 1040 1040 1040 1037 1037 1037 1037 1037 1037 1037 1037 1034 1034 1031 1031 1031 1031 1028 1028 1028 1028 1028 1025 1025 1025 1025 1025 1025 1025 1025 1025 1022 1022 1019 1019 1019 1019 1019 1019 1019 1019 1016 1016 1016 1016 1016 1016 1016 1016 1016 1013 1013 1013 1010 1010 1007 1007 1007 1007 1007 1004 1004 1004 1004 1004 1007 1004 1004 1004 1001 1001 1001 998 995 995 993 993 993 998 993 995 998 998 998 998 998 998 998 0 0 0 0 0 0 0 0 0 0 0 0 0 0 0 0 0 0 0 0 0 0 0 0 0 0 0 0 0 0 0 0 0 0 0 0 0 0
    1309 1304 1304 1304 1304 1299 1299 1299 1299 1299 1299 1299 1299 1294 1294 1289 1289 1289 1289 1289 1284 1284 1284 1284 1284 1284 1280 1284 1280 1280 1275 1275 1275 1275 1275 1270 1270 1270 1270 1265 1265 1265 1265 1265 1265 1265 1261 1261 1256 1256 1256 1256 1252 1252 1252 1252 1252 1252 1252 1252 1252 1252 1252 1252 1252 1252 1252 1252 1247 1247 1247 1243 1238 1238 1234 1234 1234 1234 1234 1234 1234 1234 1234 1234 1234 1229 1229 1229 1229 1225 1225 1225 1225 1225 1225 1225 1225 1221 1216 1216 1216 1221 1216 1216 1216 1216 1216 1216 1216 1212 1212 1212 1212 1208 1208 1208 1208 1212 1208 1208 1204 1204 1204 1200 1200 1200 1200 1200 1200 1200 1200 1195 1191 1191 1191 1191 1195 1191 1191 1187 1044 1040 1040 1037 1037 1037 1037 1037 1037 1040 1040 1040 1044 1040 1040 0 0 1044 0 0 1167 1167 1167 1167 1167 866 866 866 866 863 863 863 863 863 863 863 863 863 863 863 863 866 870 872 1148 1151 1151 1151 1151 1151 1151 1151 1151 1151 1148 1148 1148 1148 1144 1144 1144 1140 1140 1140 1140 1136 1136 1136 1136 1136 1133 1136 1133 1133 1133 1133 1133 1133 1133 1133 1133 1129 1133 1129 1129 1129 1129 1129 1129 1125 1125 1122 987 984 984 984 984 981 981 981 981 981 981 981 981 984 984 1107 1107 1107 1107 1107 1107 1107 1107 1107 1104 1104 1104 1100 1100 1097 1097 1097 1097 1097 1097 1097 1093 1093 1093 1093 1093 1090 1090 1086 1086 1086 1086 1086 1083 1083 1083 1083 1083 1083 1083 1079 1079 1079 1083 1079 1079 1083 1083 1083 1076 1076 1076 1073 1073 1073 1073 1069 1069 1069 1069 1069 1066 1066 1066 1066 1066 1066 1066 1063 1063 1063 1060 1056 1056 1056 1060 1056 1056 1056 1056 1056 1053 1053 1053 1053 1053 1053 1053 1053 1050 1050 1050 1050 1047 1047 1047 1044 1044 1044 1044 1044 1044 1044 1044 1044 1040 1040 1040 1040 1040 1037 1037 1040 1040 1037 1037 1037 1037 1037 1034 1031 1031 1031 1031 1031 1031 1028 1028 1028 1028 1028 1028 1025 1025 1025 1025 1025 1022 1022 1022 1019 1019 1019 1019 1016 1016 1016 1016 1016 1016 1016 1016 1016 1016 1016 1016 1016 1013 1013 1013 1013 1010 1010 1010 1007 1007 1004 1004 1004 1007 1007 1007 1007 1007 1007 1004 1004 1001 1001 998 998 995 995 995 995 998 995 995 995 995 998 998 998 998 998 0 0 0 0 0 0 0 0 0 0 0 0 0 0 0 0 0 0 0 0 0 0 0 0 0 0 0 0 0 0 0 0 0 0 0 0 0 0
    1304 1304 1304 1304 1304 1299 1299 1299 1299 1299 1299 1299 1299 1294 1294 1289 1289 1289 1289 1284 1284 1284 1284 1284 1284 1280 1280 1280 1280 1280 1275 1275 1275 1275 1270 1270 1270 1270 1270 1265 1265 1265 1265 1265 1265 1265 1265 1261 1256 1256 1256 1256 1252 1252 1252 1252 1252 1252 1252 1252 1252 1252 1252 1252 1252 1252 1252 1247 1243 1243 1243 1238 1238 1234 1234 1234 1234 1234 1234 1234 1234 1234 1234 1234 1234 1234 1234 1234 1229 1229 1225 1225 1225 1225 1225 1225 1225 1221 1221 1216 1216 1221 1216 1216 1216 1216 1216 1216 1216 1212 1212 1212 1208 1208 1204 1208 1208 1208 1208 1208 1204 1204 1204 1200 1200 1200 1200 1200 1200 1195 1200 1195 1191 1191 1191 1191 1191 1191 1187 1187 1044 1044 1040 1040 1040 1040 1037 1037 1040 1040 1040 1040 1044 1040 1040 0 0 1089 0 0 1167 1167 1167 1167 1167 866 866 866 863 863 863 863 863 863 863 863 863 863 863 863 863 866 868 872 1155 1155 1151 1151 1151 1151 1151 1151 1151 1151 1151 1148 1148 1148 1144 1140 1140 1140 1140 1140 1140 1136 1136 1136 1136 1136 1133 1136 1133 1133 1133 1133 1133 1133 1133 1133 1133 1133 1129 1129 1125 1125 1125 1125 1129 1125 1125 1122 987 984 984 984 984 981 981 981 981 981 981 981 984 984 984 1104 1107 1107 1107 1107 1107 1107 1107 1107 1104 1104 1104 1100 1097 1097 1097 1097 1097 1097 1097 1093 1093 1093 1093 1093 1090 1090 1090 1086 1086 1086 1086 1086 1083 1083 1083 1083 1083 1083 1083 1079 1079 1083 1083 1083 1079 1083 1083 1083 1083 1076 1073 1073 1073 1073 1069 1069 1069 1069 1069 1069 1066 1066 1066 1066 1066 1066 1066 1063 1060 1060 1060 1056 1056 1056 1060 1060 1056 1056 1056 1056 1053 1053 1053 1053 1053 1053 1050 1050 1050 1050 1050 1047 1047 1047 1047 1047 1044 1044 1044 1044 1044 1044 1044 1044 1044 1040 1040 1040 1040 1040 1037 1040 1040 1037 1037 1037 1037 1037 1034 1031 1031 1031 1031 1031 1028 1028 1028 1028 1028 1028 1028 1025 1025 1022 1025 1022 1022 1022 1022 1019 1019 1016 1016 1016 1016 1016 1016 1016 1016 1016 1016 1016 1016 1016 1016 1016 1013 1013 1013 1013 1010 1010 1010 1007 1007 1004 1004 1004 1004 1004 1004 1007 1007 1004 1004 1001 1001 1001 998 995 995 995 995 998 998 995 995 995 995 998 998 998 998 0 0 0 0 0 0 0 0 0 0 0 0 0 0 0 0 0 0 0 0 0 0 0 0 0 0 0 0 0 0 0 0 0 0 0 0 0 0 0
    1309 1304 1304 1304 1304 1299 1299 1299 1299 1299 1294 1299 1294 1294 1294 1289 1289 1289 1289 1284 1284 1284 1284 1280 1280 1280 1280 1280 1280 1280 1275 1275 1275 1275 1270 1270 1270 1270 1265 1265 1265 1265 1265 1265 1265 1265 1261 1256 1256 1256 1256 1252 1252 1252 1252 1252 1247 1247 1252 1247 1252 1252 1252 1252 1247 1247 1247 1247 1247 1243 1243 1243 1243 1238 1234 1234 1234 1234 1234 1234 1234 1234 1234 1234 1234 1229 1229 1229 1229 1225 1225 1225 1225 1221 1225 1225 1225 1221 1216 1216 1216 1221 1216 1216 1216 1216 1216 1216 1216 1216 1216 1216 1212 1208 1204 1204 1204 1204 1204 1208 1208 1204 1204 1204 1200 1200 1200 1200 1200 1200 1200 1195 1191 1195 1195 1191 1191 1191 1191 1191 1044 1044 1040 1040 1040 1040 1037 1037 1037 1040 1040 1044 1044 1040 1044 1044 0 1134 0 0 1167 1167 1167 1167 866 866 866 863 863 863 863 863 863 863 861 861 863 863 863 863 863 866 868 872 1155 1155 1155 1151 1151 1151 1151 1151 1151 1151 1151 1151 1148 1148 1144 1144 1140 1140 1140 1140 1140 1140 1136 1136 1136 1136 1136 1136 1133 1133 1133 1133 1133 1133 1133 1133 1133 1129 1129 1129 1125 1125 1125 1125 1129 1129 1129 1125 987 987 984 984 984 984 981 981 981 981 981 978 981 981 981 1104 1107 1107 1107 1107 1107 1107 1107 1107 1104 1104 1100 1097 1097 1097 1097 1097 1097 1097 1097 1093 1093 1093 1093 1093 1090 1090 1090 1086 1086 1086 1086 1083 1083 1083 1083 1083 1083 1083 1083 1083 1083 1083 1083 1083 1083 1083 1083 1076 1079 1079 1073 1069 1069 1069 1069 1069 1069 1069 1069 1069 1066 1066 1066 1066 1066 1066 1063 1063 1063 1063 1063 1060 1056 1060 1056 1060 1060 1056 1056 1056 1056 1053 1053 1053 1053 1053 1053 1050 1050 1050 1050 1050 1050 1047 1047 1050 1047 1047 1047 1044 1044 1044 1044 1044 1044 1044 1044 1040 1040 1040 1040 1040 1040 1037 1037 1037 1034 1034 1034 1031 1031 1031 1031 1028 1028 1028 1028 1028 1028 1028 1028 1028 1025 1025 1025 1025 1025 1025 1019 1019 1019 1019 1016 1016 1016 1016 1016 1016 1016 1016 1016 1016 1016 1016 1016 1013 1013 1013 1010 1010 1010 1010 1010 1007 1007 1007 1007 1004 1004 1004 1004 1007 1007 1004 1004 1001 1001 1001 998 998 995 995 995 998 998 995 995 995 995 998 998 998 998 0 0 0 0 0 0 0 0 0 0 0 0 0 0 0 0 0 0 0 0 0 0 0 0 0 0 0 0 0 0 0 0 0 0 0 0 0 0 0
    1304 1304 1304 1304 1299 1299 1299 1299 1299 1299 1299 1299 1294 1294 1294 1289 1289 1289 1289 1284 1284 1280 1284 1280 1280 1280 1280 1280 1280 1280 1275 1275 1275 1275 1270 1270 1270 1270 1267 1267 1265 1265 1265 1265 1265 1265 1261 1261 1256 1256 1256 1252 1252 1252 1252 1247 1247 1247 1247 1252 1252 1252 1252 1247 1247 1247 1247 1247 1243 1243 1243 1243 1238 1238 1238 1234 1234 1234 1234 1234 1234 1234 1234 1234 1229 1229 1229 1229 1229 1225 1225 1225 1225 1225 1225 1225 1225 1225 1221 1221 1221 1221 1216 1216 1216 1216 1216 1216 1216 1216 1216 1216 1212 1212 1204 1204 1204 1204 1204 1204 1204 1200 1204 1200 1200 1200 1200 1200 1200 1200 1200 1195 1195 1191 1191 1191 1187 1187 1187 1044 1044 1044 1040 1040 1040 1040 1040 1040 1040 1040 1040 1044 1044 1044 1044 1090 0 1179 1171 1171 1167 1167 1163 1159 866 866 866 863 863 863 861 861 861 861 861 861 863 863 863 863 863 866 868 868 1155 1155 1155 1151 1151 1151 1151 1151 1151 1151 1151 1151 1151 1148 1148 1144 1144 1140 1140 1140 1140 1140 1140 1140 1136 1136 1136 1136 1133 1133 1133 1133 1133 1133 1133 1133 1133 1133 1129 1125 1125 1125 1125 1125 1125 1125 1125 1122 987 984 984 984 984 981 981 981 981 981 981 981 981 984 987 1104 1107 1107 1107 1107 1107 1107 1107 1107 1104 1104 1100 1097 1097 1097 1097 1097 1097 1097 1093 1093 1093 1093 1093 1093 1093 1093 1090 1090 1086 1086 1086 1083 1083 1083 1083 1083 1083 1083 1083 1083 1083 1079 1083 1079 1079 1079 1076 1076 1079 1073 1069 1069 1069 1069 1069 1069 1069 1069 1069 1069 1067 1067 1067 1066 1066 1066 1063 1063 1063 1063 1063 1060 1056 1056 1056 1060 1060 1056 1056 1056 1056 1056 1053 1053 1050 1053 1053 1053 1050 1050 1050 1050 1050 1047 1047 1050 1047 1047 1047 1044 1044 1044 1044 1044 1044 1040 1040 1040 1040 1040 1037 1037 1037 1037 1037 1037 1034 1034 1034 1034 1031 1031 1031 1028 1028 1028 1028 1028 1028 1028 1028 1028 1028 1025 1025 1025 1025 1025 1022 1019 1019 1019 1019 1019 1019 1016 1016 1016 1016 1016 1016 1013 1016 1016 1016 1013 1013 1013 1013 1010 1010 1010 1010 1007 1007 1007 1007 1004 1004 1004 1004 1004 1004 1007 1007 1001 1001 998 998 995 998 995 995 998 998 995 995 998 998 998 995 995 998 0 0 0 0 0 0 0 0 0 0 0 0 0 0 0 0 0 0 0 0 0 0 0 0 0 0 0 0 0 0 0 0 0 0 0 0 0 0 0
    1304 1304 1304 1304 1299 1299 1299 1299 1299 1299 1299 1299 1299 1299 1294 1294 1289 1289 1284 1284 1284 1284 1284 1284 1280 1280 1280 1280 1280 1280 1275 1275 1275 1275 1270 1270 1270 1270 1270 1270 1265 1265 1265 1265 1265 1265 1261 1256 1256 1256 1256 1252 1252 1252 1252 1252 1252 1252 1252 1252 1252 1252 1247 1247 1247 1247 1243 1243 1243 1238 1238 1238 1238 1238 1234 1234 1234 1234 1234 1234 1234 1234 1234 1234 1234 1229 1229 1229 1225 1225 1225 1225 1225 1225 1225 1221 1225 1221 1221 1221 1221 1221 1216 1216 1216 1216 1216 1216 1216 1216 1216 1216 1216 1216 1208 1204 1204 1204 1204 1204 1204 1200 1200 1200 1195 1200 1195 1195 1200 1195 1195 1195 1191 1191 1191 1191 1187 1187 1187 1044 1044 1044 1044 1040 1044 1040 1040 1040 1040 1040 1040 1040 1040 1040 1090 1136 0 1179 1175 1171 1171 1167 1167 1155 866 866 866 863 863 863 861 861 861 861 861 861 861 863 863 863 866 866 868 866 1155 1155 1155 1151 1151 1151 1151 1151 1151 1151 1151 1151 1151 1148 1144 1144 1144 1144 1140 1140 1140 1140 1140 1140 1140 1136 1136 1136 1133 1133 1133 1133 1133 1133 1133 1129 1129 1129 1129 1125 1125 1125 1125 1125 1125 1125 1125 1125 990 987 984 984 984 981 981 981 981 981 981 978 981 981 987 987 1107 1111 1111 1107 1107 1107 1107 1107 1104 1104 1100 1097 1097 1097 1097 1097 1097 1097 1097 1093 1093 1093 1093 1093 1093 1093 1090 1090 1090 1086 1086 1083 1083 1083 1083 1083 1083 1083 1083 1083 1083 1083 1083 1083 1083 1083 1079 1079 1076 1073 1073 1069 1069 1069 1069 1069 1069 1069 1069 1073 1069 1069 1069 1066 1066 1066 1066 1063 1063 1063 1063 1060 1056 1060 1060 1060 1056 1056 1056 1056 1056 1056 1050 1050 1050 1050 1053 1047 1047 1050 1047 1047 1047 1047 1047 1047 1047 1047 1044 1044 1044 1044 1044 1044 1044 1040 1040 1040 1037 1037 1034 1037 1037 1037 1037 1037 1037 1034 1031 1034 1034 1031 1028 1028 1028 1028 1028 1028 1028 1025 1028 1028 1028 1025 1025 1025 1025 1025 1022 1019 1019 1019 1019 1019 1019 1019 1016 1016 1016 1016 1016 1013 1016 1016 1013 1013 1013 1013 1013 1013 1010 1010 1010 1010 1007 1007 1007 1004 1004 1004 1004 1004 1007 1007 1001 998 1001 998 998 995 995 995 995 998 998 995 995 995 995 995 995 995 998 0 0 0 0 0 0 0 0 0 0 0 0 0 0 0 0 0 0 0 0 0 0 0 0 0 0 0 0 0 0 0 0 0 0 0 0 0 0 0
    1304 1304 1299 1299 1299 1299 1299 1299 1299 1299 1294 1299 1294 1294 1294 1294 1289 1289 1284 1284 1280 1284 1284 1284 1280 1280 1284 1284 1280 1280 1275 1275 1275 1270 1270 1270 1270 1270 1270 1270 1265 1265 1265 1265 1265 1261 1261 1256 1256 1256 1252 1252 1252 1252 1252 1252 1252 1247 1252 1252 1252 1247 1247 1247 1247 1247 1247 1247 1243 1243 1243 1243 1238 1238 1238 1234 1234 1234 1234 1234 1234 1234 1234 1234 1234 1229 1225 1225 1225 1225 1225 1221 1221 1221 1221 1221 1221 1221 1221 1221 1221 1221 1216 1216 1216 1216 1216 1216 1216 1212 1212 1212 1212 1212 1208 1204 1204 1204 1200 1204 1204 1200 1200 1200 1195 1200 1195 1195 1195 1195 1195 1195 1191 1191 1191 1187 1187 1187 1040 1044 1044 1044 1044 1044 1040 1040 1040 1040 1040 1040 1040 1044 1040 1040 1136 1183 1183 1179 1175 1171 1167 1159 863 866 866 866 863 863 863 863 861 861 861 861 861 861 861 863 863 863 866 866 866 866 1155 1151 1151 1151 1151 1151 1151 1151 1151 1151 1151 1151 1151 1148 1148 1144 1144 1144 1144 1140 1140 1140 1140 1140 1140 1140 1136 1136 1136 1133 1133 1133 1133 1133 1133 1133 1133 1129 1129 1125 1125 1125 1125 1125 1125 1125 1125 1125 993 987 987 984 984 981 981 978 978 981 978 978 978 981 987 987 984 1111 1111 1107 1107 1107 1107 1107 1104 1100 1100 1097 1097 1097 1097 1097 1097 1097 1097 1093 1093 1093 1093 1093 1093 1093 1090 1090 1090 1090 1090 1083 1086 1086 1086 1083 1083 1083 1083 1083 1083 1083 1083 1083 1083 1083 1079 1079 1076 1076 1073 1073 1073 1073 1073 1069 1069 1069 1069 1073 1066 1069 1069 1066 1066 1066 1066 1063 1063 1060 1063 1063 1056 1056 1060 1056 1056 1056 1056 1056 1056 1056 1053 1053 1050 1053 1053 1053 1047 1050 1050 1050 1050 1047 1047 1047 1047 1047 1047 1044 1044 1044 1044 1044 1040 1040 1040 1040 1040 1037 1037 1037 1037 1037 1037 1037 1034 1034 1034 1034 1034 1031 1031 1028 1028 1028 1028 1028 1028 1028 1028 1028 1028 1025 1025 1025 1025 1022 1022 1019 1019 1019 1019 1019 1019 1019 1016 1016 1016 1016 1016 1013 1016 1016 1013 1013 1013 1010 1010 1010 1010 1010 1010 1007 1007 1007 1007 1007 1004 1004 1004 1004 1007 1007 1004 1004 1001 1001 1004 1001 1001 1001 1001 998 998 995 995 995 995 995 995 995 998 0 0 0 0 0 0 0 0 0 0 0 0 0 0 0 0 0 0 0 0 0 0 0 0 0 0 0 0 0 0 0 0 0 0 0 0 0 0 0
    1304 1304 1304 1299 1299 1299 1299 1299 1299 1299 1299 1299 1294 1294 1294 1294 1289 1289 1289 1284 1284 1284 1284 1284 1280 1280 1284 1284 1284 1280 1280 1275 1275 1275 1270 1270 1270 1270 1270 1270 1270 1265 1265 1261 1261 1256 1256 1256 1256 1256 1252 1252 1252 1252 1252 1252 1247 1247 1247 1247 1247 1247 1247 1247 1247 1247 1247 1247 1243 1243 1243 1243 1243 1238 1238 1238 1238 1234 1234 1234 1234 1234 1234 1234 1234 1229 1229 1225 1229 1225 1225 1225 1225 1225 1225 1221 1221 1221 1221 1221 1216 1216 1216 1216 1216 1216 1216 1212 1212 1208 1212 1212 1212 1208 1204 1204 1208 1208 1208 1200 1200 1200 1200 1200 1195 1195 1195 1195 1195 1195 1195 1191 1191 1187 1187 1187 1187 1187 1044 1044 1044 1044 1044 1044 1040 1040 1040 1040 1044 1044 1044 1044 1044 1183 1183 1183 1183 1179 1175 1171 1167 1163 1159 866 866 866 863 863 863 861 861 859 861 861 861 861 861 863 863 863 866 866 866 866 1155 1151 1151 1151 1151 1151 1151 1151 1151 1155 1151 1151 1151 1151 1148 1148 1144 1144 1144 1144 1140 1140 1140 1140 1140 1136 1136 1136 1136 1136 1136 1133 1133 1133 1133 1133 1129 1129 1125 1125 1125 1125 1125 1125 1125 1125 1125 1125 1059 987 987 987 984 984 981 981 981 981 981 981 981 981 987 987 984 1111 1111 1111 1107 1107 1107 1107 1104 1100 1100 1097 1097 1097 1097 1097 1097 1097 1093 1093 1093 1093 1093 1090 1090 1090 1090 1090 1090 1090 1090 1086 1086 1086 1086 1086 1083 1083 1083 1083 1083 1083 1083 1083 1079 1079 1079 1079 1076 1076 1073 1073 1073 1073 1073 1069 1069 1069 1069 1073 1066 1069 1069 1066 1066 1066 1066 1066 1063 1063 1063 1063 1060 1060 1060 1060 1060 1060 1056 1056 1056 1056 1053 1053 1050 1050 1053 1050 1044 1047 1050 1050 1050 1050 1047 1050 1047 1047 1047 1044 1044 1044 1044 1044 1040 1040 1040 1040 1040 1037 1037 1040 1037 1037 1037 1037 1037 1034 1034 1034 1034 1031 1028 1028 1028 1031 1028 1028 1028 1028 1028 1028 1028 1025 1025 1025 1022 1022 1019 1019 1019 1019 1019 1019 1019 1019 1016 1016 1016 1016 1016 1013 1016 1016 1013 1013 1010 1010 1010 1010 1010 1010 1007 1007 1007 1007 1007 1007 1007 1007 1007 1007 1004 1007 1004 1004 1001 1004 1004 1001 1001 1001 1001 998 998 995 995 995 995 995 995 995 998 0 0 0 0 0 0 0 0 0 0 0 0 0 0 0 0 0 0 0 0 0 0 0 0 0 0 0 0 0 0 0 0 0 0 0 0 0 0 0
    1299 1299 1299 1299 1299 1299 1299 1299 1294 1294 1294 1294 1294 1294 1294 1294 1289 1289 1289 1284 1284 1284 1284 1284 1284 1284 1284 1284 1284 1280 1280 1275 1275 1275 1270 1270 1270 1270 1270 1270 1270 1265 1265 1265 1265 1261 1256 1256 1256 1256 1252 1252 1252 1252 1252 1247 1247 1247 1247 1243 1247 1247 1247 1243 1243 1247 1247 1247 1243 1243 1243 1243 1243 1238 1238 1238 1238 1238 1238 1238 1234 1234 1234 1234 1234 1229 1225 1225 1229 1225 1225 1225 1225 1225 1225 1221 1221 1221 1221 1221 1221 1216 1216 1216 1216 1216 1216 1212 1212 1212 1212 1208 1208 1204 1204 1204 1204 1204 1204 1200 1200 1200 1200 1200 1200 1200 1200 1200 1200 1200 1195 1191 1191 1187 1187 1187 1187 1187 1044 1044 1044 1044 1044 1044 1040 1040 1040 1040 1040 1044 1044 1044 1044 1179 1175 1175 1175 1171 1175 1171 1167 1167 868 866 866 866 863 863 861 861 861 861 861 861 861 861 861 863 863 863 866 863 863 863 1155 1151 1151 1151 1151 1151 1151 1151 1151 1151 1151 1151 1151 1151 1148 1148 1148 1148 1144 1144 1140 1140 1140 1140 1140 1140 1136 1136 1136 1136 1136 1136 1133 1133 1133 1133 1133 1133 1129 1125 1125 1125 1125 1125 1125 1125 1125 1125 1125 990 987 984 984 984 981 981 978 981 981 981 981 981 987 987 984 1107 1111 1107 1107 1107 1107 1107 1104 1100 1100 1097 1097 1097 1097 1097 1097 1097 1097 1093 1093 1090 1090 1090 1090 1090 1090 1090 1086 1086 1086 1086 1086 1086 1086 1086 1086 1086 1086 1086 1083 1083 1083 1083 1079 1079 1079 1079 1079 1076 1076 1073 1073 1073 1073 1069 1069 1069 1069 1069 1066 1069 1069 1066 1066 1063 1066 1066 1063 1063 1066 1066 1063 1063 1063 1060 1060 1060 1060 1056 1056 1053 1053 1053 1050 1053 1050 1053 1047 1050 1050 1050 1050 1047 1050 1050 1047 1047 1047 1044 1044 1044 1044 1040 1040 1040 1040 1040 1040 1037 1037 1037 1037 1040 1037 1037 1037 1034 1034 1034 1034 1031 1031 1031 1028 1031 1028 1028 1028 1028 1028 1028 1028 1025 1025 1025 1025 1022 1022 1019 1019 1022 1019 1019 1019 1019 1016 1016 1016 1016 1016 1013 1013 1016 1013 1013 1010 1010 1010 1010 1010 1010 1010 1010 1010 1010 1007 1007 1007 1007 1007 1004 1004 1004 1004 1004 1004 1004 1004 1001 1001 1001 1001 998 998 995 995 995 995 995 995 995 998 0 0 0 0 0 0 0 0 0 0 0 0 0 0 0 0 0 0 0 0 0 0 0 0 0 0 0 0 0 0 0 0 0 0 0 0 0 0 0
    1299 1299 1299 1299 1299 1299 1299 1299 1299 1294 1294 1294 1294 1294 1294 1294 1294 1289 1289 1289 1289 1284 1289 1284 1289 1284 1284 1284 1284 1280 1280 1280 1275 1280 1275 1275 1270 1270 1270 1270 1270 1265 1261 1261 1261 1256 1256 1256 1256 1256 1252 1252 1252 1252 1252 1252 1247 1247 1243 1243 1243 1243 1243 1243 1243 1243 1247 1247 1243 1243 1243 1243 1243 1238 1238 1238 1238 1238 1238 1238 1234 1234 1234 1234 1234 1229 1229 1229 1229 1225 1225 1225 1225 1225 1225 1221 1221 1221 1221 1216 1216 1216 1216 1216 1216 1216 1212 1212 1212 1212 1212 1208 1208 1204 1204 1204 1204 1204 1204 1204 1200 1200 1200 1200 1200 1200 1200 1195 1200 1195 1195 1191 1191 1191 1187 1187 1187 1187 1044 1044 1044 1044 1044 1040 1040 1040 1040 1040 1040 1044 1044 1044 1047 1179 1175 1175 1171 1171 1171 1171 1167 874 866 866 866 863 863 861 861 861 861 859 859 861 861 861 861 861 863 863 863 863 863 863 1151 1151 1155 1151 1151 1151 1151 1151 1155 1155 1151 1151 1151 1151 1151 1148 1144 1144 1144 1144 1140 1140 1140 1140 1140 1140 1140 1136 1136 1136 1136 1136 1136 1136 1136 1133 1133 1133 1129 1125 1125 1125 1125 1125 1125 1125 1125 1125 1125 990 987 984 984 984 981 981 981 981 981 981 984 981 984 984 984 1111 1111 1111 1111 1107 1107 1107 1104 1100 1097 1097 1097 1097 1097 1097 1097 1097 1097 1093 1093 1090 1090 1090 1090 1090 1090 1086 1086 1086 1086 1086 1086 1086 1086 1086 1086 1086 1086 1086 1083 1083 1083 1083 1083 1079 1079 1079 1079 1076 1076 1076 1073 1073 1073 1069 1069 1069 1069 1069 1067 1069 1069 1066 1066 1066 1066 1066 1066 1066 1066 1066 1063 1063 1060 1060 1056 1060 1056 1056 1056 1053 1053 1053 1056 1056 1053 1053 1053 1053 1050 1050 1050 1047 1047 1050 1047 1047 1047 1044 1044 1044 1044 1040 1040 1040 1040 1040 1040 1037 1037 1037 1037 1037 1037 1037 1034 1034 1034 1034 1031 1031 1031 1031 1031 1031 1028 1028 1028 1028 1028 1028 1028 1025 1025 1025 1025 1022 1022 1019 1019 1022 1019 1019 1019 1019 1019 1019 1019 1016 1016 1013 1013 1016 1013 1013 1013 1010 1013 1010 1010 1010 1010 1010 1010 1010 1007 1007 1007 1007 1007 1004 1004 1004 1004 1004 1004 1004 1004 1004 1004 1004 995 995 995 995 995 995 995 995 995 995 998 0 0 0 0 0 0 0 0 0 0 0 0 0 0 0 0 0 0 0 0 0 0 0 0 0 0 0 0 0 0 0 0 0 0 0 0 0 0 0
    1299 1299 1299 1299 1299 1299 1304 1299 1294 1294 1294 1294 1294 1294 1294 1294 1289 1289 1289 1289 1289 1289 1289 1289 1289 1284 1284 1289 1284 1280 1280 1280 1280 1280 1275 1275 1275 1270 1275 1270 1270 1265 1265 1261 1261 1256 1256 1256 1256 1256 1256 1256 1252 1252 1252 1252 1247 1247 1247 1243 1243 1243 1243 1243 1247 1247 1247 1247 1243 1243 1243 1243 1243 1238 1238 1238 1238 1238 1238 1238 1234 1234 1234 1234 1234 1229 1225 1225 1225 1225 1225 1221 1225 1221 1225 1221 1221 1221 1216 1216 1216 1216 1216 1216 1216 1216 1212 1212 1212 1212 1212 1208 1204 1204 1204 1204 1204 1204 1204 1200 1200 1200 1200 1200 1195 1200 1200 1195 1195 1195 1195 1191 1191 1191 1187 1187 1187 1187 1040 1044 1044 1044 1040 1040 1040 1040 1040 1044 1044 1044 1044 1044 1044 1179 1175 1175 1171 1171 1171 1167 1163 1155 0 866 866 866 863 863 863 863 863 861 861 859 861 859 859 861 863 863 863 863 863 863 1151 1151 1151 1151 1151 1151 1151 1151 1151 1151 1151 1151 1151 1151 1151 1148 1148 1144 1144 1140 1140 1140 1140 1140 1140 1136 1140 1136 1136 1136 1136 1136 1136 1136 1133 1133 1133 1129 1129 1129 1125 1125 1125 1125 1125 1125 1125 1125 1125 990 987 984 984 984 984 981 981 981 981 981 984 984 984 987 987 1107 1111 1111 1107 1107 1107 1104 1100 1100 1097 1097 1097 1097 1097 1097 1097 1097 1097 1093 1093 1090 1090 1086 1090 1090 1086 1086 1086 1086 1086 1086 1086 1086 1086 1086 1086 1086 1086 1086 1086 1083 1083 1083 1083 1079 1079 1079 1079 1079 1079 1079 1076 1079 1073 1069 1069 1069 1066 1066 1069 1069 1069 1066 1066 1066 1066 1066 1066 1063 1066 1063 1063 1063 1060 1060 1060 1056 1056 1056 1056 1053 1053 1056 1056 1056 1053 1053 1053 1050 1050 1047 1047 1047 1047 1047 1047 1044 1044 1044 1044 1040 1040 1040 1040 1040 1037 1037 1037 1034 1034 1037 1037 1040 1037 1037 1037 1034 1034 1034 1031 1031 1031 1031 1031 1031 1031 1031 1031 1028 1028 1028 1028 1025 1025 1025 1025 1025 1025 1022 1022 1022 1022 1022 1022 1019 1019 1019 1019 1016 1016 1013 1013 1013 1013 1010 1010 1010 1010 1010 1010 1010 1010 1007 1007 1007 1007 1007 1004 1004 1004 1004 1004 1001 1001 1004 1001 1001 1004 1004 998 995 995 995 995 995 995 995 995 995 995 995 995 0 0 0 0 0 0 0 0 0 0 0 0 0 0 0 0 0 0 0 0 0 0 0 0 0 0 0 0 0 0 0 0 0 0 0 0 0 0 0
    1299 1299 1299 1299 1299 1299 1299 1299 1299 1294 1294 1294 1294 1294 1294 1294 1289 1289 1289 1289 1289 1289 1289 1289 1289 1289 1284 1289 1284 1280 1275 1280 1275 1275 1275 1275 1270 1275 1275 1270 1270 1270 1265 1261 1261 1256 1256 1256 1256 1256 1256 1256 1256 1252 1252 1252 1247 1247 1243 1243 1243 1243 1243 1243 1247 1247 1247 1247 1247 1243 1243 1243 1238 1238 1238 1238 1238 1238 1238 1234 1234 1234 1234 1234 1234 1229 1229 1225 1225 1225 1225 1221 1221 1221 1221 1221 1221 1216 1216 1216 1216 1216 1212 1216 1212 1212 1212 1208 1208 1208 1208 1208 1204 1204 1204 1204 1204 1204 1204 1200 1200 1200 1200 1200 1195 1195 1195 1195 1195 1195 1191 1191 1191 1191 1191 1191 1191 1187 1044 1047 1044 1044 1040 1040 1040 1040 1040 1040 1044 1044 1044 1044 1044 1179 1175 1171 1171 1171 1171 1155 1155 1144 0 0 0 861 863 863 863 863 863 861 861 861 861 859 859 861 863 863 863 863 863 863 1151 1151 1151 1151 1151 1151 1151 1148 1151 1151 1148 1151 1148 1148 1148 1148 1148 1148 1144 1144 1144 1140 1140 1140 1140 1136 1136 1136 1136 1136 1136 1136 1136 1136 1133 1133 1133 1129 1129 1129 1129 1125 1125 1125 1125 1125 1125 1125 1125 991 990 987 984 984 984 981 981 981 981 984 984 984 984 984 984 1111 1111 1111 1107 1107 1107 1104 1104 1100 1100 1097 1097 1097 1097 1097 1097 1097 1097 1097 1097 1093 1090 1086 1086 1086 1090 1090 1086 1086 1086 1086 1086 1086 1086 1086 1086 1083 1086 1083 1083 1083 1083 1079 1079 1079 1079 1079 1079 1079 1079 1079 1076 1079 1079 1069 1069 1069 1067 1066 1066 1066 1066 1066 1066 1066 1066 1066 1066 1063 1063 1063 1063 1063 1060 1060 1060 1060 1056 1056 1056 1056 1056 1056 1053 1053 1053 1053 1050 1050 1047 1047 1047 1047 1047 1047 1047 1044 1044 1044 1044 1044 1040 1040 1040 1040 1037 1037 1037 1034 1037 1037 1037 1040 1037 1037 1037 1034 1034 1034 1031 1031 1031 1031 1031 1031 1031 1031 1031 1028 1028 1028 1028 1025 1025 1025 1022 1022 1022 1019 1022 1022 1022 1022 1022 1019 1019 1019 1019 1016 1016 1013 1013 1013 1013 1010 1010 1010 1013 1010 1010 1010 1010 1007 1007 1007 1007 1007 1007 1007 1004 1004 1004 1004 1004 1001 1001 1004 1001 1004 998 998 995 995 995 995 995 995 995 998 998 998 1001 0 0 0 0 0 0 0 0 0 0 0 0 0 0 0 0 0 0 0 0 0 0 0 0 0 0 0 0 0 0 0 0 0 0 0 0 0 0 0
    1304 1304 1304 1304 1304 1299 1304 1299 1299 1294 1294 1294 1294 1294 1294 1294 1289 1289 1289 1289 1289 1289 1289 1289 1289 1284 1284 1284 1284 1284 1280 1280 1280 1280 1275 1275 1275 1275 1275 1275 1270 1270 1265 1263 1265 1265 1261 1261 1261 1261 1256 1256 1256 1256 1252 1252 1247 1247 1243 1243 1243 1243 1247 1247 1247 1247 1252 1247 1247 1247 1247 1243 1243 1238 1238 1238 1238 1238 1238 1234 1234 1234 1234 1234 1229 1229 1225 1225 1225 1221 1221 1221 1221 1221 1221 1221 1216 1216 1216 1216 1216 1216 1212 1212 1208 1212 1208 1208 1208 1208 1208 1204 1204 1204 1204 1204 1204 1204 1200 1200 1200 1200 1200 1200 1195 1195 1195 1195 1195 1195 1195 1191 1191 1195 1187 1191 1191 1191 1044 1044 1044 1044 1040 1040 1040 1040 1040 1044 1044 1044 1044 1044 1044 1175 1171 1171 1171 1171 1171 1163 1161 0 0 0 0 864 863 863 863 863 863 861 861 861 861 859 859 859 861 863 863 863 863 0 1151 1151 1151 1151 1151 1151 1151 1151 1151 1151 1148 1151 1148 1148 1148 1148 1148 1148 1144 1144 1144 1140 1140 1140 1140 1136 1136 1136 1136 1136 1136 1136 1136 1136 1136 1133 1133 1133 1129 1129 1129 1129 1125 1125 1125 1125 1125 1125 1125 993 987 984 984 984 984 981 981 981 981 981 984 984 987 984 984 1111 1111 1111 1107 1107 1107 1104 1104 1100 1100 1100 1097 1097 1097 1097 1097 1097 1097 1093 1093 1093 1093 1090 1090 1090 1090 1090 1086 1086 1086 1086 1086 1086 1086 1086 1086 1083 1083 1083 1083 1083 1083 1079 1079 1079 1079 1079 1079 1079 1079 1076 1076 1076 1073 1069 1069 1066 1069 1066 1066 1066 1066 1066 1066 1066 1063 1063 1063 1063 1063 1063 1063 1063 1060 1060 1060 1060 1060 1060 1056 1056 1056 1056 1053 1053 1053 1053 1053 1050 1050 1050 1047 1047 1047 1047 1047 1047 1044 1044 1044 1044 1040 1040 1037 1037 1037 1034 1034 1037 1037 1037 1037 1040 1037 1037 1037 1034 1034 1031 1031 1031 1031 1031 1031 1031 1031 1028 1028 1028 1028 1028 1028 1025 1025 1025 1022 1022 1022 1019 1022 1022 1019 1019 1022 1019 1019 1019 1016 1016 1016 1013 1013 1013 1013 1010 1010 1010 1010 1010 1010 1007 1007 1007 1007 1007 1007 1007 1007 1007 1007 1004 1004 1004 1001 1004 1001 1001 1001 998 998 995 995 995 995 995 995 995 995 998 995 998 1001 0 0 0 0 0 0 0 0 0 0 0 0 0 0 0 0 0 0 0 0 0 0 0 0 0 0 0 0 0 0 0 0 0 0 0 0 0 0 0
    1304 1304 1304 1304 1304 1304 1304 1299 1294 1294 1294 1294 1294 1294 1294 1294 1294 1294 1294 1289 1289 1289 1289 1289 1289 1289 1284 1284 1284 1280 1280 1280 1280 1280 1275 1275 1275 1275 1275 1275 1275 1270 1265 1265 1265 1265 1261 1261 1261 1261 1261 1256 1256 1256 1256 1252 1247 1243 1243 1243 1243 1243 1247 1247 1247 1247 1247 1247 1247 1247 1247 1243 1243 1238 1238 1238 1234 1234 1234 1234 1234 1234 1234 1229 1229 1225 1225 1225 1225 1225 1221 1221 1221 1221 1221 1221 1216 1216 1216 1216 1216 1212 1212 1212 1208 1208 1208 1204 1204 1208 1204 1204 1204 1204 1204 1204 1204 1204 1200 1200 1200 1200 1200 1200 1200 1200 1200 1195 1195 1195 1200 1195 1195 1195 1191 1191 1191 1191 1044 1047 1044 1044 1040 1040 1040 1040 1040 1040 1044 1044 1044 1044 1044 1171 1171 1171 1171 1167 1171 1171 1167 0 0 0 0 868 863 863 863 863 863 861 863 861 861 861 861 861 863 863 863 863 0 0 1151 1151 1151 1151 1151 1151 1151 1151 1151 1151 1151 1151 1148 1148 1148 1144 1144 1144 1144 1144 1144 1140 1140 1140 1140 1136 1136 1136 1136 1136 1136 1136 1136 1136 1133 1133 1133 1133 1129 1129 1129 1129 1129 1125 1125 1125 1125 1125 1125 1059 987 984 984 984 981 981 981 981 981 981 984 984 984 984 981 981 1111 1111 1107 1107 1107 1104 1104 1100 1100 1097 1097 1097 1097 1097 1097 1097 1097 1093 1093 1093 1090 1090 1090 1090 1090 1090 1090 1086 1086 1086 1086 1086 1083 1083 1083 1083 1083 1083 1083 1083 1083 1079 1079 1079 1079 1079 1079 1079 1079 1076 1076 1076 1073 1069 1069 1067 1069 1067 1066 1066 1066 1066 1066 1066 1066 1063 1063 1063 1060 1063 1063 1060 1060 1060 1063 1063 1063 1060 1060 1060 1056 1053 1053 1053 1053 1053 1053 1053 1050 1050 1050 1047 1047 1047 1047 1047 1044 1044 1044 1040 1040 1040 1037 1037 1037 1034 1037 1034 1034 1037 1037 1037 1037 1034 1034 1034 1034 1031 1031 1031 1031 1031 1031 1031 1031 1031 1031 1028 1028 1028 1028 1025 1025 1025 1022 1022 1019 1019 1019 1019 1019 1019 1019 1019 1019 1016 1016 1016 1016 1013 1013 1013 1013 1013 1010 1010 1010 1010 1010 1007 1007 1007 1007 1007 1010 1007 1007 1007 1004 1004 1004 1001 1001 1001 998 1001 998 998 998 995 995 998 998 995 995 995 998 998 998 1001 1004 0 0 0 0 0 0 0 0 0 0 0 0 0 0 0 0 0 0 0 0 0 0 0 0 0 0 0 0 0 0 0 0 0 0 0 0 0 0 0
    1309 1304 1309 1304 1304 1304 1309 1304 1299 1294 1294 1294 1294 1294 1294 1294 1294 1294 1294 1289 1289 1289 1289 1289 1289 1289 1284 1284 1280 1280 1280 1280 1275 1280 1280 1280 1275 1275 1275 1275 1275 1270 1265 1265 1265 1265 1265 1265 1265 1265 1265 1261 1256 1256 1256 1256 1247 1243 1243 1243 1243 1243 1247 1247 1247 1247 1247 1247 1247 1247 1243 1243 1243 1238 1238 1238 1234 1234 1234 1234 1229 1229 1229 1225 1225 1225 1225 1225 1225 1225 1221 1221 1221 1221 1221 1221 1216 1216 1216 1212 1216 1212 1208 1208 1208 1204 1204 1204 1204 1204 1204 1204 1204 1204 1204 1204 1204 1204 1200 1200 1200 1200 1200 1200 1200 1200 1200 1195 1195 1195 1195 1191 1191 1187 1187 1187 1187 1187 1044 1044 1044 1044 1040 1040 1040 1040 1040 1040 1044 1044 1044 1044 1044 1044 1171 1171 1167 1167 1171 1171 1167 0 0 0 0 872 861 861 863 861 861 861 861 861 861 861 861 861 863 863 863 863 0 0 1151 1155 1155 1155 1151 1151 1151 1151 1151 1151 1151 1151 1148 1148 1148 1148 1148 1148 1144 1144 1144 1140 1140 1140 1140 1136 1136 1136 1136 1136 1136 1136 1136 1136 1133 1133 1133 1133 1129 1129 1129 1129 1129 1129 1125 1125 1125 1125 1125 1125 987 984 984 984 984 981 981 981 981 981 981 981 984 984 981 981 1111 1111 1107 1107 1107 1104 1100 1100 1097 1097 1097 1097 1097 1097 1097 1097 1097 1093 1093 1093 1093 1090 1090 1086 1086 1086 1086 1086 1086 1083 1083 1086 1083 1083 1083 1083 1083 1083 1083 1079 1079 1079 1079 1076 1079 1079 1079 1076 1079 1076 1076 1076 1073 1069 1069 1069 1069 1069 1066 1066 1066 1066 1063 1063 1063 1063 1063 1060 1063 1063 1063 1060 1060 1060 1063 1063 1060 1060 1060 1056 1056 1053 1053 1053 1053 1053 1053 1053 1050 1050 1050 1050 1047 1047 1047 1047 1044 1044 1044 1040 1040 1040 1040 1040 1037 1037 1037 1037 1037 1037 1037 1037 1034 1031 1034 1034 1031 1031 1031 1031 1031 1031 1031 1031 1031 1031 1028 1028 1028 1028 1028 1025 1025 1022 1022 1022 1019 1019 1019 1019 1019 1019 1019 1019 1019 1016 1016 1016 1013 1013 1013 1013 1013 1013 1010 1010 1010 1010 1010 1010 1007 1007 1007 1007 1007 1007 1007 1004 1004 1004 1001 1001 1001 1001 998 1001 998 998 998 995 995 995 995 995 995 995 998 995 998 998 1001 0 0 0 0 0 0 0 0 0 0 0 0 0 0 0 0 0 0 0 0 0 0 0 0 0 0 0 0 0 0 0 0 0 0 0 0 0 0 0
    1309 1309 1309 1309 1309 1304 1304 1299 1299 1294 1294 1294 1294 1294 1294 1294 1294 1294 1294 1294 1289 1289 1289 1289 1289 1289 1289 1284 1284 1280 1275 1275 1275 1275 1275 1275 1275 1275 1275 1275 1275 1270 1265 1265 1265 1265 1265 1265 1265 1265 1265 1261 1261 1261 1256 1256 1252 1247 1247 1243 1243 1247 1247 1247 1247 1247 1247 1247 1247 1243 1243 1243 1238 1238 1238 1234 1234 1234 1234 1229 1229 1229 1229 1225 1225 1225 1225 1225 1221 1221 1221 1221 1221 1216 1221 1216 1216 1216 1216 1212 1212 1212 1208 1208 1208 1208 1204 1204 1204 1204 1204 1204 1204 1204 1204 1204 1200 1200 1200 1200 1200 1200 1200 1200 1200 1200 1200 1195 1195 1195 1195 1191 1191 1191 1187 1187 1187 1187 1091 1047 1044 1044 1040 1044 1040 1040 1044 1044 1044 1044 1044 1044 1044 1040 1171 1171 1171 1171 1175 1171 0 0 0 0 0 868 863 863 863 863 861 861 861 861 861 859 861 861 863 863 866 863 0 0 1155 1155 1151 1155 1151 1151 1151 1151 1151 1151 1151 1151 1148 1148 1151 1148 1148 1144 1144 1144 1144 1140 1140 1140 1140 1140 1136 1136 1136 1136 1136 1136 1136 1136 1136 1133 1133 1133 1129 1129 1129 1129 1125 1125 1125 1125 1125 1125 1125 1125 987 984 984 984 984 981 981 981 981 981 981 981 984 984 987 987 1111 1107 1107 1107 1104 1104 1104 1100 1100 1097 1097 1097 1097 1097 1097 1093 1097 1093 1093 1093 1093 1090 1090 1090 1090 1090 1090 1086 1086 1086 1083 1086 1083 1083 1083 1083 1083 1083 1083 1083 1079 1079 1079 1076 1076 1076 1076 1076 1076 1076 1076 1076 1073 1073 1069 1069 1069 1069 1066 1066 1066 1066 1066 1066 1066 1063 1063 1063 1063 1063 1060 1060 1060 1060 1060 1060 1060 1056 1056 1056 1056 1053 1053 1050 1053 1053 1053 1053 1050 1050 1050 1047 1047 1047 1047 1044 1044 1044 1044 1040 1040 1040 1040 1040 1037 1037 1034 1034 1034 1037 1037 1037 1034 1034 1034 1034 1031 1031 1031 1031 1031 1031 1031 1031 1031 1028 1028 1028 1028 1028 1028 1028 1025 1025 1022 1022 1019 1019 1019 1019 1019 1019 1019 1019 1019 1016 1016 1016 1013 1013 1013 1013 1016 1013 1013 1013 1013 1013 1010 1010 1007 1007 1007 1007 1007 1007 1007 1004 1004 1004 1001 1001 1001 998 998 998 998 995 995 995 995 995 995 995 995 995 995 995 998 998 998 0 0 0 0 0 0 0 0 0 0 0 0 0 0 0 0 0 0 0 0 0 0 0 0 0 0 0 0 0 0 0 0 0 0 0 0 0 0 0
    1309 1309 1309 1309 1309 1304 1304 1304 1299 1294 1294 1294 1294 1294 1294 1294 1294 1294 1294 1294 1289 1289 1289 1289 1289 1289 1284 1284 1280 1275 1275 1275 1275 1275 1275 1275 1275 1275 1275 1275 1270 1270 1270 1265 1265 1265 1265 1265 1265 1265 1265 1265 1261 1261 1261 1256 1256 1247 1252 1247 1247 1247 1247 1247 1247 1247 1247 1247 1247 1243 1238 1238 1238 1238 1238 1234 1234 1234 1229 1229 1229 1225 1225 1225 1225 1225 1221 1221 1221 1221 1221 1221 1221 1216 1216 1216 1216 1212 1212 1212 1212 1212 1208 1208 1208 1208 1204 1204 1208 1204 1204 1204 1204 1204 1204 1204 1204 1204 1200 1204 1204 1204 1200 1200 1200 1200 1195 1195 1195 1195 1195 1195 1191 1191 1187 1187 1187 1187 1139 1044 1044 1044 1040 1044 1044 1044 1044 1044 1044 1044 1044 1044 1040 1040 1167 1171 1167 1167 1175 1171 0 0 0 0 0 864 863 863 863 863 861 861 861 861 861 859 859 861 863 863 866 863 0 1155 1155 1155 1151 1155 1151 1151 1151 1151 1151 1151 1151 1151 1151 1151 1151 1148 1151 1148 1144 1144 1144 1140 1140 1140 1140 1136 1136 1136 1136 1136 1136 1136 1136 1136 1133 1133 1133 1133 1129 1129 1129 1129 1129 1129 1125 1125 1125 1125 1125 1125 984 984 984 984 984 984 981 984 984 981 981 981 984 984 984 984 1107 1107 1107 1104 1104 1104 1104 1100 1100 1100 1100 1097 1097 1097 1097 1097 1097 1097 1097 1093 1093 1093 1093 1090 1090 1090 1090 1086 1086 1086 1086 1086 1083 1083 1083 1083 1083 1083 1083 1079 1079 1079 1079 1076 1079 1076 1076 1076 1076 1076 1076 1076 1073 1069 1069 1069 1069 1069 1066 1066 1066 1066 1066 1063 1066 1063 1063 1060 1060 1060 1060 1060 1056 1060 1060 1060 1056 1056 1056 1056 1053 1053 1053 1050 1050 1050 1050 1050 1050 1050 1050 1047 1047 1047 1047 1047 1044 1044 1044 1044 1040 1040 1040 1040 1037 1037 1034 1034 1034 1034 1034 1034 1031 1031 1031 1031 1031 1031 1031 1028 1031 1031 1031 1028 1028 1028 1028 1028 1028 1028 1028 1028 1025 1025 1022 1022 1019 1019 1019 1019 1019 1019 1019 1019 1019 1016 1016 1016 1016 1013 1013 1013 1016 1013 1013 1010 1013 1010 1010 1007 1007 1007 1007 1007 1004 1004 1004 1004 1001 1001 998 998 998 998 995 998 998 995 998 995 998 998 998 995 995 995 995 995 995 998 995 0 0 0 0 0 0 0 0 0 0 0 0 0 0 0 0 0 0 0 0 0 0 0 0 0 0 0 0 0 0 0 0 0 0 0 0 0 0 0
    1309 1309 1309 1309 1309 1304 1304 1304 1299 1299 1294 1294 1294 1294 1294 1294 1294 1294 1294 1289 1289 1289 1289 1289 1289 1284 1284 1284 1280 1275 1275 1275 1275 1275 1275 1275 1270 1275 1275 1270 1270 1270 1270 1265 1265 1265 1265 1265 1265 1265 1265 1265 1261 1261 1261 1256 1256 1247 1252 1247 1247 1247 1247 1247 1247 1247 1247 1243 1243 1243 1238 1238 1238 1238 1238 1234 1234 1234 1229 1229 1225 1225 1225 1225 1221 1225 1221 1221 1221 1221 1221 1216 1216 1216 1216 1216 1216 1212 1212 1212 1212 1212 1212 1208 1208 1208 1204 1204 1204 1204 1204 1204 1204 1204 1204 1204 1200 1200 1200 1200 1200 1200 1200 1200 1200 1200 1200 1195 1195 1195 1195 1195 1191 1191 1191 1191 1187 1187 1187 1044 1044 1040 1044 1044 1044 1044 1044 1044 1044 1044 1044 1044 1040 1040 1171 1171 1171 1171 1179 0 0 0 0 0 0 861 863 863 863 861 859 859 861 861 861 859 859 863 863 866 866 866 0 1155 1155 1155 1151 1151 1151 1151 1151 1151 1151 1151 1151 1151 1151 1151 1151 1148 1148 1148 1144 1144 1140 1140 1140 1140 1140 1140 1140 1136 1136 1136 1136 1136 1136 1136 1136 1136 1133 1133 1133 1133 1129 1129 1129 1129 1125 1125 1125 1125 1125 1129 984 984 984 984 984 984 981 984 984 984 981 981 984 984 984 978 978 1107 1107 1107 1104 1104 1104 1100 1100 1100 1097 1097 1097 1097 1097 1097 1097 1097 1097 1097 1093 1093 1093 1090 1090 1090 1090 1086 1090 1086 1086 1086 1086 1086 1083 1083 1083 1083 1083 1083 1079 1079 1079 1079 1079 1079 1076 1076 1079 1079 1073 1073 1073 1069 1069 1069 1069 1069 1066 1066 1066 1066 1063 1063 1063 1063 1063 1060 1060 1060 1060 1056 1056 1056 1056 1060 1056 1056 1056 1056 1053 1053 1053 1050 1050 1050 1053 1050 1050 1050 1050 1050 1047 1047 1047 1047 1044 1044 1044 1044 1044 1040 1040 1040 1037 1037 1034 1034 1034 1034 1034 1037 1034 1034 1034 1034 1034 1031 1031 1031 1031 1031 1031 1028 1028 1028 1028 1028 1028 1028 1028 1028 1025 1025 1022 1022 1019 1019 1019 1019 1019 1019 1019 1019 1019 1016 1016 1016 1016 1016 1013 1016 1016 1016 1013 1013 1013 1010 1010 1007 1007 1007 1007 1007 1004 1004 1004 1004 1004 1001 1001 1001 998 998 998 998 998 998 998 998 998 998 998 995 995 995 995 995 995 993 995 0 0 0 0 0 0 0 0 0 0 0 0 0 0 0 0 0 0 0 0 0 0 0 0 0 0 0 0 0 0 0 0 0 0 0 0 0 0 0
    1309 1309 1309 1309 1304 1304 1304 1304 1299 1294 1294 1294 1294 1294 1294 1294 1294 1294 1294 1289 1289 1289 1289 1284 1284 1284 1284 1284 1280 1275 1275 1275 1275 1275 1270 1270 1270 1270 1270 1270 1270 1270 1270 1265 1265 1265 1265 1261 1261 1265 1265 1265 1261 1261 1261 1261 1261 1252 1252 1252 1252 1252 1252 1247 1247 1247 1247 1247 1247 1243 1238 1238 1238 1238 1238 1234 1234 1234 1229 1229 1225 1225 1225 1221 1221 1225 1221 1221 1221 1221 1221 1216 1216 1216 1216 1216 1216 1216 1212 1212 1212 1212 1208 1208 1208 1208 1208 1204 1204 1204 1204 1204 1204 1204 1204 1204 1200 1200 1204 1204 1204 1204 1200 1200 1200 1200 1200 1195 1195 1195 1195 1195 1191 1191 1191 1191 1187 1187 1195 1093 1044 1044 1044 1044 1044 1044 1044 1044 1047 1047 1044 1044 1044 1044 1171 1171 1171 1175 1175 0 0 0 0 0 0 861 861 861 863 861 859 859 861 861 861 861 861 863 863 863 866 866 866 1163 1155 1155 1151 1155 1151 1151 1151 1151 1151 1151 1151 1151 1151 1148 1148 1148 1148 1148 1148 1144 1144 1144 1140 1140 1140 1140 1140 1136 1136 1136 1136 1136 1136 1136 1136 1136 1133 1133 1133 1129 1129 1129 1125 1129 1125 1125 1125 1125 1125 1122 982 984 984 984 984 984 981 984 984 984 984 981 981 981 978 978 978 1107 1107 1104 1104 1104 1100 1100 1100 1097 1097 1097 1097 1097 1097 1097 1097 1097 1097 1097 1093 1093 1093 1090 1086 1086 1086 1086 1090 1086 1090 1090 1086 1086 1086 1083 1083 1083 1083 1083 1083 1079 1083 1079 1079 1079 1079 1079 1079 1079 1073 1073 1069 1069 1069 1069 1069 1069 1067 1066 1066 1066 1066 1066 1063 1063 1063 1060 1060 1060 1060 1056 1056 1056 1056 1060 1060 1056 1056 1056 1053 1053 1053 1050 1050 1053 1053 1053 1053 1053 1053 1050 1047 1047 1047 1047 1044 1044 1044 1044 1044 1040 1040 1037 1037 1037 1037 1034 1037 1034 1037 1034 1031 1034 1034 1034 1034 1031 1031 1031 1031 1031 1028 1028 1028 1028 1028 1028 1028 1028 1028 1028 1025 1025 1025 1022 1019 1019 1019 1019 1019 1019 1019 1019 1019 1016 1016 1016 1016 1016 1013 1016 1016 1016 1013 1013 1013 1010 1010 1007 1007 1007 1004 1004 1004 1004 1004 1001 1001 1001 998 998 998 998 998 998 998 998 998 998 998 1001 998 995 995 995 995 993 993 998 995 0 0 0 0 0 0 0 0 0 0 0 0 0 0 0 0 0 0 0 0 0 0 0 0 0 0 0 0 0 0 0 0 0 0 0 0 0 0 0
    1309 1309 1309 1309 1304 1299 1299 1299 1299 1294 1294 1294 1294 1294 1294 1294 1294 1294 1294 1289 1289 1289 1289 1289 1284 1284 1284 1280 1280 1275 1275 1275 1275 1275 1275 1270 1270 1270 1270 1270 1270 1270 1270 1265 1265 1265 1261 1261 1261 1261 1265 1265 1261 1261 1261 1256 1256 1252 1252 1252 1252 1252 1247 1247 1247 1247 1247 1243 1243 1238 1238 1238 1234 1234 1234 1234 1234 1234 1229 1229 1229 1229 1225 1225 1225 1225 1225 1221 1221 1221 1221 1216 1216 1216 1216 1216 1216 1212 1212 1212 1212 1212 1208 1208 1208 1208 1208 1204 1204 1204 1204 1204 1204 1204 1204 1204 1204 1204 1204 1204 1204 1204 1204 1204 1200 1200 1200 1195 1195 1195 1195 1195 1191 1191 1191 1191 1187 1187 1195 1142 1044 1044 1044 1044 1047 1047 1047 1047 1047 1047 1047 1044 1044 1044 1171 1171 1175 1175 1175 0 0 0 0 0 0 859 861 861 863 861 859 859 859 861 861 861 861 863 863 863 866 866 1175 1171 1155 1155 1155 1155 1151 1151 1151 1151 1151 1151 1151 1151 1151 1151 1151 1148 1148 1148 1144 1144 1144 1140 1140 1140 1140 1140 1140 1136 1136 1136 1136 1136 1136 1136 1136 1136 1136 1133 1133 1133 1129 1129 1125 1129 1125 1125 1125 1125 1125 1122 981 981 984 984 984 984 981 981 981 981 981 981 981 981 978 978 978 1107 1107 1104 1100 1100 1100 1100 1100 1100 1100 1097 1097 1097 1097 1097 1097 1097 1093 1093 1093 1093 1093 1090 1086 1090 1090 1090 1090 1090 1090 1090 1086 1086 1086 1086 1083 1083 1083 1083 1083 1083 1083 1079 1079 1079 1079 1079 1079 1079 1073 1073 1073 1073 1073 1073 1069 1069 1069 1067 1067 1066 1066 1066 1063 1063 1063 1060 1060 1060 1060 1060 1056 1056 1056 1060 1060 1056 1056 1056 1056 1053 1053 1053 1053 1053 1053 1053 1053 1053 1053 1053 1050 1050 1047 1047 1047 1047 1044 1044 1044 1040 1040 1037 1037 1037 1037 1034 1034 1034 1037 1034 1031 1031 1031 1031 1031 1031 1031 1031 1028 1028 1028 1028 1028 1028 1028 1028 1028 1028 1028 1028 1025 1025 1025 1022 1019 1019 1019 1019 1019 1019 1019 1019 1019 1019 1016 1016 1016 1016 1016 1016 1019 1016 1016 1016 1013 1013 1010 1010 1007 1007 1004 1004 1004 1004 1004 1001 1001 1001 1001 998 998 998 998 1001 998 998 998 998 998 1001 1001 995 995 995 995 993 993 993 993 0 0 0 0 0 0 0 0 0 0 0 0 0 0 0 0 0 0 0 0 0 0 0 0 0 0 0 0 0 0 0 0 0 0 0 0 0 0 0
    1309 1309 1309 1304 1304 1299 1299 1299 1299 1294 1294 1294 1294 1294 1294 1294 1294 1289 1289 1289 1289 1289 1289 1284 1284 1284 1284 1284 1280 1275 1275 1275 1275 1270 1270 1270 1270 1270 1270 1270 1270 1270 1270 1265 1265 1265 1261 1261 1261 1261 1261 1261 1261 1256 1256 1256 1256 1252 1252 1252 1252 1247 1247 1247 1247 1243 1243 1243 1238 1238 1238 1238 1234 1234 1234 1234 1234 1234 1229 1229 1229 1229 1225 1225 1225 1225 1225 1221 1221 1221 1221 1221 1216 1216 1216 1216 1216 1216 1212 1212 1212 1212 1208 1208 1208 1208 1208 1208 1208 1208 1208 1204 1208 1208 1204 1204 1204 1204 1204 1204 1204 1204 1204 1204 1200 1200 1200 1195 1195 1195 1195 1195 1191 1191 1191 1191 1187 1187 1191 1191 1044 1044 1044 1047 1047 1047 1047 1047 1047 1047 1047 1044 1047 1047 1175 1171 1175 1171 1171 0 0 0 0 0 0 861 863 863 863 861 859 859 859 861 859 859 861 861 863 863 863 866 866 1167 1155 1155 1155 1155 1151 1151 1151 1151 1151 1151 1151 1151 1151 1151 1151 1151 1148 1148 1148 1144 1144 1144 1140 1140 1140 1140 1136 1136 1136 1136 1136 1136 1136 1136 1136 1136 1136 1133 1133 1129 1129 1125 1125 1125 1125 1125 1125 1125 1122 1122 981 981 984 984 984 984 984 984 984 984 984 981 981 981 978 978 983 1104 1107 1104 1100 1100 1100 1100 1100 1100 1100 1100 1097 1097 1097 1097 1097 1097 1097 1097 1093 1093 1093 1093 1090 1090 1090 1090 1090 1090 1090 1090 1086 1086 1086 1086 1086 1083 1083 1083 1083 1079 1083 1079 1079 1079 1079 1079 1076 1073 1073 1073 1073 1073 1073 1073 1073 1073 1069 1069 1069 1067 1066 1066 1066 1066 1066 1063 1060 1060 1060 1060 1056 1056 1056 1056 1056 1056 1056 1056 1053 1053 1053 1050 1053 1053 1053 1053 1053 1053 1053 1053 1050 1050 1050 1050 1047 1047 1047 1044 1044 1040 1040 1040 1040 1040 1037 1037 1037 1037 1037 1037 1034 1034 1034 1034 1034 1031 1031 1031 1031 1028 1028 1028 1025 1028 1028 1028 1028 1028 1028 1028 1025 1025 1025 1022 1022 1022 1022 1022 1022 1019 1019 1019 1019 1019 1016 1016 1016 1016 1016 1016 1016 1016 1013 1013 1013 1010 1010 1007 1007 1007 1007 1004 1004 1004 1004 1001 1001 1001 1001 998 998 1001 998 1001 1001 1001 1001 1001 1001 1001 1001 998 995 995 995 993 993 993 993 0 0 0 0 0 0 0 0 0 0 0 0 0 0 0 0 0 0 0 0 0 0 0 0 0 0 0 0 0 0 0 0 0 0 0 0 0 0 0
    1309 1309 1309 1304 1304 1299 1299 1299 1299 1294 1294 1294 1294 1294 1289 1289 1289 1289 1289 1289 1289 1289 1289 1289 1284 1284 1284 1284 1280 1275 1275 1275 1270 1270 1270 1270 1270 1270 1270 1270 1270 1270 1270 1267 1265 1265 1265 1261 1261 1261 1256 1261 1256 1256 1256 1256 1256 1252 1252 1252 1252 1252 1247 1247 1247 1243 1243 1243 1238 1238 1238 1238 1234 1238 1238 1234 1234 1234 1229 1229 1234 1229 1225 1225 1225 1225 1225 1221 1221 1221 1221 1221 1216 1216 1216 1216 1216 1216 1216 1212 1212 1212 1208 1208 1208 1204 1204 1204 1204 1204 1204 1204 1208 1204 1204 1204 1204 1204 1204 1204 1204 1204 1204 1204 1200 1200 1200 1200 1195 1195 1195 1195 1195 1191 1191 1191 1191 1191 1191 1044 1044 1044 1044 1047 1047 1047 1047 1047 1047 1047 1047 1047 1047 1051 1175 1175 1175 1171 1171 0 0 0 0 0 859 861 863 863 863 861 859 859 861 861 859 859 861 861 863 863 863 866 866 1159 1155 1155 1155 1155 1151 1151 1151 1151 1151 1151 1151 1151 1151 1151 1151 1151 1151 1148 1148 1144 1144 1144 1140 1140 1140 1140 1136 1136 1136 1136 1136 1136 1136 1136 1136 1136 1133 1133 1133 1129 1129 1125 1125 1125 1125 1125 1125 1125 1125 1125 1032 984 984 984 984 984 984 984 984 984 981 981 981 981 981 986 989 1104 1107 1104 1104 1104 1104 1100 1104 1100 1100 1100 1100 1100 1097 1097 1097 1097 1097 1097 1097 1093 1093 1093 1090 1090 1090 1090 1090 1090 1090 1090 1090 1090 1086 1086 1086 1083 1083 1083 1083 1083 1083 1079 1079 1079 1079 1079 1076 1076 1076 1073 1073 1073 1073 1073 1073 1073 1069 1069 1069 1069 1066 1066 1066 1066 1063 1063 1063 1063 1060 1060 1060 1056 1056 1056 1056 1056 1056 1056 1053 1053 1053 1053 1053 1053 1053 1053 1053 1053 1053 1053 1050 1050 1050 1047 1047 1047 1047 1044 1044 1040 1040 1040 1040 1040 1040 1040 1037 1037 1037 1037 1034 1034 1034 1034 1034 1031 1031 1031 1028 1028 1028 1025 1025 1025 1028 1028 1028 1028 1028 1028 1025 1025 1025 1022 1022 1022 1022 1022 1022 1022 1019 1019 1019 1019 1016 1016 1016 1016 1016 1016 1016 1016 1013 1013 1013 1010 1010 1007 1007 1007 1007 1004 1004 1004 1004 1004 1004 1001 1001 1001 1001 1001 1001 1001 1001 1001 1001 998 998 998 998 995 995 995 995 993 993 993 993 0 0 0 0 0 0 0 0 0 0 0 0 0 0 0 0 0 0 0 0 0 0 0 0 0 0 0 0 0 0 0 0 0 0 0 0 0 0 0
    1309 1309 1304 1304 1304 1299 1299 1299 1299 1299 1299 1299 1294 1294 1294 1289 1289 1289 1289 1289 1289 1284 1284 1284 1284 1284 1284 1280 1280 1275 1275 1275 1275 1270 1270 1270 1270 1270 1270 1270 1270 1270 1270 1270 1265 1265 1261 1261 1256 1261 1256 1256 1256 1256 1256 1256 1256 1256 1252 1252 1252 1252 1247 1247 1243 1243 1238 1238 1238 1238 1238 1238 1238 1238 1238 1234 1234 1234 1234 1229 1234 1229 1229 1225 1225 1225 1225 1221 1221 1221 1221 1221 1216 1216 1216 1216 1216 1216 1212 1212 1212 1212 1208 1208 1204 1204 1204 1204 1204 1208 1208 1208 1208 1204 1204 1204 1204 1204 1204 1204 1204 1204 1204 1200 1200 1200 1200 1200 1195 1195 1195 1195 1191 1191 1191 1195 1191 1191 1191 1191 1044 1044 1044 1047 1047 1047 1047 1047 1047 1047 1047 1047 1056 1056 1187 1175 1175 1175 1171 1167 0 0 0 0 859 863 863 863 861 861 859 859 859 859 859 859 861 861 863 863 863 866 866 868 1155 1155 1155 1155 1151 1151 1151 1151 1151 1151 1151 1151 1151 1151 1151 1148 1148 1148 1144 1144 1144 1144 1140 1140 1140 1140 1140 1136 1136 1136 1136 1136 1136 1136 1136 1136 1133 1133 1133 1129 1129 1125 1125 1125 1125 1125 1125 1125 1125 1125 1084 1038 985 987 987 987 984 984 984 984 984 984 984 981 984 995 995 995 1107 1104 1104 1104 1104 1104 1104 1100 1100 1100 1100 1097 1097 1097 1097 1097 1097 1097 1093 1093 1093 1093 1093 1093 1093 1090 1090 1090 1090 1090 1090 1090 1090 1090 1086 1086 1086 1086 1083 1083 1083 1083 1079 1079 1079 1079 1076 1076 1076 1076 1073 1073 1073 1073 1073 1069 1069 1069 1069 1069 1066 1066 1066 1066 1066 1063 1063 1063 1060 1060 1056 1056 1056 1056 1056 1056 1056 1056 1053 1053 1053 1053 1053 1053 1053 1053 1053 1053 1053 1053 1050 1050 1050 1050 1047 1047 1047 1044 1044 1044 1040 1040 1040 1040 1040 1040 1040 1037 1037 1037 1037 1037 1034 1034 1034 1031 1031 1031 1028 1028 1025 1025 1025 1025 1028 1028 1028 1028 1028 1028 1025 1025 1025 1022 1022 1022 1022 1022 1022 1022 1019 1019 1019 1019 1016 1016 1016 1016 1016 1016 1016 1016 1013 1013 1010 1010 1010 1007 1007 1004 1004 1004 1004 1004 1004 1004 1004 1001 1001 1001 1001 1001 1001 1001 1001 1001 1001 1001 998 1001 998 995 993 993 993 993 993 993 993 0 0 0 0 0 0 0 0 0 0 0 0 0 0 0 0 0 0 0 0 0 0 0 0 0 0 0 0 0 0 0 0 0 0 0 0 0 0 0</data></depth>
</opencv_storage>
